# .PCD v0.7 - Point Cloud Data file format
VERSION 0.7
FIELDS x y z intensity
SIZE 4 4 4 4
TYPE F F F F
COUNT 1 1 1 1
WIDTH 1364
HEIGHT 1
VIEWPOINT 0 0 0 1 0 0 0
POINTS 1364
DATA ascii
-12.36 -6.6360002 0.185 0.27000001
-12.2 -6.5999999 0.185 0.38999999
-12.123 -6.6069999 0.185 0.38999999
-12.043 -6.612 0.185 0.40000001
-11.961 -6.6160002 0.185 0.38
-11.87 -6.6149998 0.185 0.43000001
-11.973 -6.7220001 0.185 0.38
-11.745 -6.6170001 0.186 0.31999999
-11.984 -6.803 0.185 0.56999999
-12.258 -7.0100002 0.185 0.28999999
-12.253 -7.0580001 0.185 0.62
-12.141 -7.0440001 0.185 0.33000001
-12.077 -7.0580001 0.185 0.50999999
-11.997 -7.0609999 0.185 0.38999999
-11.764 -6.9489999 0.185 0.43000001
-11.723 -6.974 0.185 0.30000001
-11.679 -6.9980001 0.185 0.56
-11.667 -7.0409999 0.185 0.25999999
-11.805 -7.1750002 0.185 0.57999998
-11.581 -7.0890002 0.185 0.16
-11.544 -7.1149998 0.185 0.33000001
-11.49 -7.1069999 0.186 0.36000001
-11.368 -7.0809999 0.186 0.13
-10.633 -6.6680002 0.18700001 0.55000001
-10.664 -6.7340002 0.18700001 0
-11.13 -7.079 0.186 0.07
-10.408 -6.664 0.18700001 0.15000001
-10.32 -6.6529999 0.18700001 0.19
-10.271 -6.6440001 0.18799999 0.20999999
-10.212 -6.651 0.18799999 0.25999999
-10.149 -6.6550002 0.18799999 0.17
-10.054 -6.684 0.18799999 0.33000001
-9.9680004 -6.6719999 0.18799999 0.58999997
-9.8999996 -6.671 0.18799999 0.43000001
-9.8730001 -6.6760001 0.18799999 0.20999999
-9.7910004 -6.665 0.18799999 0.61000001
-9.7559996 -6.6859999 0.18799999 0.28
-9.6750002 -6.6750002 0.18799999 0.54000002
-9.6120005 -6.6760001 0.18799999 0.38999999
-9.5550003 -6.6810002 0.18799999 0.30000001
-9.5039997 -6.6900001 0.18799999 0.43000001
-9.4689999 -6.6869998 0.189 0.31999999
-9.3929996 -6.678 0.189 0.61000001
-9.3380003 -6.6820002 0.189 0.31
-9.2790003 -6.6849999 0.189 0.49000001
-9.2469997 -6.7059999 0.189 0.23999999
-9.1680002 -6.6919999 0.189 0.62
-9.4490004 -6.9439998 0.18799999 0.34
-9.5640001 -7.052 0.18799999 0.31
-9.5059996 -7.0560002 0.18799999 0.51999998
-9.4729996 -7.0770001 0.18799999 0.34
-9.4169998 -7.0809999 0.18799999 0.46000001
-9.3649998 -7.0879998 0.18799999 0.41999999
-9.2930002 -7.0799999 0.18799999 0.41
-9.2309999 -7.0780001 0.18799999 0.40000001
-9.1990004 -7.0770001 0.18799999 0.36000001
-9.1440001 -7.0799999 0.189 0.44999999
-9.0780001 -7.0739999 0.189 0.40000001
-9.0290003 -7.0819998 0.189 0.34999999
-8.9799995 -7.0890002 0.189 0.47999999
-8.9239998 -7.0910001 0.189 0.40000001
-8.882 -7.1030002 0.189 0.44
-8.8400002 -7.0910001 0.189 0.38
-8.7799997 -7.0890002 0.189 0.46000001
-8.7329998 -7.0960002 0.189 0.40000001
-8.6800003 -7.098 0.189 0.43000001
-8.6280003 -7.1009998 0.189 0.41
-8.5869999 -7.1129999 0.189 0.37
-8.5430002 -7.1220002 0.189 0.5
-8.5080004 -7.1149998 0.189 0.34
-8.4639997 -7.1230001 0.189 0.41
-8.4580002 -7.164 0.189 0.64999998
-8.0059996 -6.822 0.19 0.25999999
-8.092 -6.9400001 0.19 0.14
-8.3100004 -7.1739998 0.189 0.49000001
-8.2790003 -7.1919999 0.189 0.38999999
-8.243 -7.184 0.19 0.46000001
-8.2209997 -7.21 0.19 0.34
-8.165 -7.2069998 0.19 0.63
-7.9949999 -7.0999999 0.19 0.31
-7.5999999 -6.7909999 0.191 0.40000001
-7.4710002 -6.717 0.191 0.25
-7.4439998 -6.7350001 0.191 0.5
-7.4180002 -6.7340002 0.191 0.52999997
-7.362 -6.724 0.191 0.50999999
-7.3239999 -6.7329998 0.191 0.51999998
-7.2859998 -6.7389998 0.191 0.54000002
-7.2309999 -6.7309999 0.191 0.52999997
-7.1919999 -6.737 0.191 0.51999998
-7.1560001 -6.7459998 0.191 0.51999998
-7.1199999 -6.7319999 0.191 0.52999997
-7.0739999 -6.7309999 0.191 0.51999998
-7.0370002 -6.7379999 0.191 0.5
-6.9910002 -6.7360001 0.191 0.5
-6.9640002 -6.7529998 0.191 0.50999999
-6.9720001 -6.802 0.191 0.46000001
-6.9629998 -6.8369999 0.191 0.47999999
-6.9710002 -6.8660002 0.191 0.64999998
-6.9380002 -6.8769999 0.191 0.47
-6.9109998 -6.8930001 0.191 0.25999999
-6.8649998 -6.8899999 0.191 0.58999997
-6.9910002 -7.0619998 0.191 0.25
-7.0190001 -7.1350002 0.191 0.38999999
-7.027 -7.1880002 0.191 0.34
-7.0380001 -7.223 0.191 0.20999999
-7.0320001 -7.2620001 0.191 0.43000001
-7.039 -7.316 0.191 0.22
-7.04 -7.362 0.191 0.23
-7.04 -7.4089999 0.191 0.2
-7.0440001 -7.46 0.191 0.30000001
-7.0469999 -7.5100002 0.191 0.25999999
-7.046 -7.533 0.19 0.11
-7.0510001 -7.586 0.19 0
-7.0549998 -7.6389999 0.19 0
-7.0489998 -7.6799998 0.19 0
-7.0489998 -7.7290001 0.19 0.07
-6.0700002 -6.757 0.192 0.47999999
-6.0409999 -6.7670002 0.192 0.49000001
-5.9949999 -6.7589998 0.192 0.49000001
-5.9619999 -6.7639999 0.192 0.49000001
-5.9330001 -6.7729998 0.193 0.49000001
-5.8839998 -6.7600002 0.193 0.51999998
-5.849 -6.7620001 0.193 0.34999999
-5.8239999 -6.7550001 0.193 0.56999999
-5.7919998 -6.7610002 0.193 0.33000001
-5.7480001 -6.7509999 0.193 0.55000001
-5.724 -6.7659998 0.193 0.34
-5.6729999 -6.7490001 0.193 0.55000001
-5.6669998 -6.7849998 0.193 0.31999999
-5.6430001 -6.8000002 0.193 0.58999997
-5.6290002 -6.8039999 0.193 0.36000001
-5.631 -6.8509998 0.193 0.38
-5.631 -6.895 0.193 0.38
-5.6269999 -6.9349999 0.193 0.46000001
-5.6279998 -6.98 0.193 0.38
-5.6069999 -7 0.193 0.41999999
-5.5840001 -7.0159998 0.193 0.37
-5.5570002 -7.0040002 0.193 0.44
-5.533 -7.02 0.193 0.36000001
-5.4910002 -7.0100002 0.193 0.37
-5.4569998 -7.013 0.193 0.43000001
-5.4219999 -7.013 0.193 0.36000001
-5.3870001 -7.0120001 0.193 0.43000001
-5.3600001 -7.0229998 0.193 0.31999999
-5.3270001 -7.0029998 0.193 0.44999999
-5.3070002 -7.0229998 0.193 0.30000001
-5.2719998 -7.0219998 0.193 0.5
-5.2480001 -7.0349998 0.193 0.30000001
-5.2049999 -7.0240002 0.193 0.43000001
-5.1700001 -7.0229998 0.193 0.36000001
-5.1350002 -7.0209999 0.193 0.41999999
-5.1149998 -7.0159998 0.193 0.36000001
-5.0809999 -7.0159998 0.193 0.36000001
-5.0510001 -7.02 0.193 0.43000001
-5.0159998 -7.0180001 0.193 0.36000001
-4.9949999 -7.0359998 0.193 0.41999999
-4.96 -7.033 0.193 0.36000001
-4.9250002 -7.0289998 0.193 0.43000001
-4.908 -7.0289998 0.193 0.36000001
-4.8720002 -7.0240002 0.193 0.47999999
-4.8429999 -7.0300002 0.193 0.34
-4.8099999 -7.0279999 0.193 0.34999999
-4.7779999 -7.0279999 0.193 0.41999999
-4.7470002 -7.0300002 0.193 0.34999999
-4.723 -7.0430002 0.193 0.41999999
-4.6989999 -7.0310001 0.193 0.33000001
-4.665 -7.027 0.193 0.41999999
-4.6350002 -7.0300002 0.193 0.34
-4.6059999 -7.0349998 0.193 0.41
-4.5799999 -7.0419998 0.193 0.36000001
-4.5510001 -7.046 0.193 0.34999999
-4.5219998 -7.0489998 0.193 0.40000001
-4.5009999 -7.0409999 0.19400001 0.38999999
-4.4749999 -7.0479999 0.19400001 0.40000001
-4.434 -7.033 0.19400001 0.38
-4.4060001 -7.0370002 0.19400001 0.34999999
-4.3779998 -7.0419998 0.19400001 0.40000001
-4.3460002 -7.039 0.19400001 0.40000001
-4.3239999 -7.053 0.19400001 0.31999999
-4.3039999 -7.046 0.19400001 0.41
-4.2729998 -7.0440001 0.19400001 0.38999999
-4.244 -7.0450001 0.19400001 0.34
-4.217 -7.052 0.19400001 0.44999999
-4.1869998 -7.0510001 0.19400001 0.33000001
-4.1589999 -7.0539999 0.19400001 0.40000001
-4.131 -7.0560002 0.19400001 0.40000001
-4.119 -7.0609999 0.19400001 0.34
-4.0819998 -7.0500002 0.19400001 0.46000001
-4.0580001 -7.059 0.19400001 0.33000001
-4.0310001 -7.0630002 0.19400001 0.38999999
-3.9909999 -7.0440001 0.19400001 0.40000001
-3.9660001 -7.052 0.19400001 0.34
-3.9449999 -7.066 0.19400001 0.44999999
-3.9159999 -7.0409999 0.19400001 0.31
-3.878 -7.0229998 0.19400001 0.40000001
-3.859 -7.04 0.19400001 0.34
-3.826 -7.033 0.19400001 0.37
-3.809 -7.0539999 0.19400001 0.41
-3.7920001 -7.0760002 0.19400001 0.34
-3.76 -7.0689998 0.19400001 0.41999999
-3.7390001 -7.0570002 0.19400001 0.31999999
-3.7149999 -7.0650001 0.19400001 0.41
-3.684 -7.059 0.19400001 0.34
-3.6589999 -7.0650001 0.19400001 0.41999999
-3.635 -7.073 0.19400001 0.38999999
-3.6029999 -7.0650001 0.19400001 0.38
-3.5769999 -7.0689998 0.19400001 0.34
-3.562 -7.0679998 0.19400001 0.40000001
-3.5320001 -7.0630002 0.19400001 0.38999999
-3.51 -7.0739999 0.19400001 0.38999999
-3.484 -7.0770001 0.19400001 0.31
-3.45 -7.0630002 0.19400001 0.40000001
-3.4219999 -7.0630002 0.19400001 0.38999999
-3.3989999 -7.072 0.19400001 0.40000001
-3.3789999 -7.0580001 0.19400001 0.36000001
-3.3570001 -7.0700002 0.19400001 0.38999999
-3.332 -7.0749998 0.19400001 0.38
-3.3010001 -7.0650001 0.19400001 0.38
-3.28 -7.0780001 0.19400001 0.38
-3.257 -7.086 0.19400001 0.38
-3.2260001 -7.0780001 0.19400001 0.40000001
-3.207 -7.0650001 0.19400001 0.34
-3.184 -7.073 0.19400001 0.38
-3.152 -7.0609999 0.19400001 0.38999999
-3.1300001 -7.0710001 0.19400001 0.38999999
-3.105 -7.0749998 0.19400001 0.38999999
-3.079 -7.0760002 0.19499999 0.38
-3.053 -7.0760002 0.19499999 0.36000001
-3.04 -7.0770001 0.19499999 0.38
-3.007 -7.0609999 0.19499999 0.38
-2.9849999 -7.072 0.19499999 0.38
-2.964 -7.0830002 0.19499999 0.36000001
-2.9360001 -7.0799999 0.19499999 0.38
-2.9089999 -7.0760002 0.19499999 0.36000001
-2.8859999 -7.0830002 0.19499999 0.38999999
-2.865 -7.0640001 0.19499999 0.38
-2.8429999 -7.0739999 0.19499999 0.38999999
-2.819 -7.0780001 0.19499999 0.36000001
-2.796 -7.085 0.19499999 0.36000001
-2.767 -7.0770001 0.19499999 0.38
-2.7449999 -7.085 0.19499999 0.38999999
-2.721 -7.0879998 0.19499999 0.33000001
-2.704 -7.0799999 0.19499999 0.40000001
-2.6819999 -7.086 0.19499999 0.36000001
-2.6570001 -7.0890002 0.19499999 0.36000001
-2.6289999 -7.0799999 0.19499999 0.38
-2.602 -7.0770001 0.19499999 0.36000001
-2.579 -7.0840001 0.19499999 0.37
-2.556 -7.0900002 0.19499999 0.41
-2.5409999 -7.0819998 0.19499999 0.31999999
-2.516 -7.0830002 0.19499999 0.38999999
-2.4719999 -7.026 0.19499999 0.34999999
-1.4170001 -4.0349998 0.2 0.090000004
-1.406 -4.0450001 0.2 0.14
-1.401 -4.072 0.2 0.23
-1.383 -4.0609999 0.2 0.30000001
-1.3710001 -4.0450001 0.2 0.14
-2.3540001 -7.0799999 0.19499999 0.36000001
-2.332 -7.0869999 0.19499999 0.38
-2.306 -7.085 0.19499999 0.37
-2.2839999 -7.092 0.19499999 0.41999999
-2.257 -7.0840001 0.19499999 0.33000001
-2.2379999 -7.0999999 0.19499999 0.38
-2.22 -7.0830002 0.19499999 0.38
-2.1960001 -7.086 0.19499999 0.38
-2.174 -7.0910001 0.19499999 0.38
-2.1500001 -7.092 0.19499999 0.43000001
-2.1300001 -7.1059999 0.19499999 0.23
-2.043 -6.8920002 0.19499999 0.51999998
-2.0250001 -6.8699999 0.19499999 0.28999999
-1.995 -6.848 0.19499999 0.34
-1.969 -6.8390002 0.19499999 0.41999999
-1.9450001 -6.8369999 0.19499999 0.41
-1.923 -6.8410001 0.19499999 0.41
-1.902 -6.8470001 0.19499999 0.33000001
-1.88 -6.8509998 0.19499999 0.41999999
-1.867 -6.849 0.19499999 0.34999999
-1.859 -6.9029999 0.19499999 0.56999999
-1.807 -6.7940001 0.19599999 0.2
-1.765 -6.7189999 0.19599999 0.12
-1.748 -6.7420001 0.19599999 0.61000001
-1.725 -6.7410002 0.19599999 0.23
-1.726 -6.8790002 0.19499999 0.38
-1.698 -6.8610001 0.19599999 0.5
-1.676 -6.8629999 0.19599999 0.37
-1.654 -6.8660002 0.19599999 0.5
-1.6339999 -6.8769999 0.19599999 0.37
-1.607 -6.8610001 0.19599999 0.47999999
-1.587 -6.8740001 0.19599999 0.36000001
-1.5700001 -6.849 0.19599999 0.66000003
-1.5470001 -6.8439999 0.19599999 0.38999999
-1.524 -6.8449998 0.19599999 0.34999999
-1.502 -6.8460002 0.19599999 0.38
-1.478 -6.8390002 0.19599999 0.31
-1.454 -6.8330002 0.19599999 0.31999999
-1.433 -6.8379998 0.19599999 0.31999999
-1.42 -6.8319998 0.19599999 0.31999999
-1.399 -6.8390002 0.19599999 0.25999999
-1.38 -6.8530002 0.19599999 0.31999999
-1.3559999 -6.8439999 0.19599999 0.41
-1.334 -6.8460002 0.19599999 0.34
-1.313 -6.8520002 0.19599999 0.41
-1.291 -6.8579998 0.19599999 0.34999999
-1.28 -6.8559999 0.19599999 0.41
-1.258 -6.8600001 0.19599999 0.34999999
-1.237 -6.8660002 0.19599999 0.41999999
-1.214 -6.862 0.19599999 0.34999999
-1.1900001 -6.8499999 0.19599999 0.41999999
-1.17 -6.8649998 0.19599999 0.34999999
-1.147 -6.855 0.19599999 0.41
-1.136 -6.8569999 0.19599999 0.40000001
-1.115 -6.8649998 0.19599999 0.38999999
-1.0930001 -6.8639998 0.19599999 0.40000001
-1.069 -6.8559999 0.19599999 0.38
-1.049 -6.8670001 0.19599999 0.40000001
-1.027 -6.8660002 0.19599999 0.38
-1.0039999 -6.8610001 0.19599999 0.38999999
-0.99400002 -6.8670001 0.19599999 0.38
-0.97000003 -6.8499999 0.19599999 0.38
-0.949 -6.8569999 0.19599999 0.37
-0.92699999 -6.862 0.19599999 0.37
-0.90399998 -6.855 0.19599999 0.38999999
-0.884 -6.8639998 0.19599999 0.38
-0.86299998 -6.875 0.19599999 0.38999999
-0.85000002 -6.8600001 0.19599999 0.34
-0.829 -6.8670001 0.19599999 0.37
-0.80900002 -6.8829999 0.19599999 0.38
-0.78500003 -6.8660002 0.19599999 0.37
-0.764 -6.868 0.19599999 0.37
-0.74299997 -6.875 0.19599999 0.37
-0.72000003 -6.8610001 0.19599999 0.38
-0.70899999 -6.8639998 0.19599999 0.34999999
-0.68800002 -6.868 0.19599999 0.36000001
-0.66600001 -6.8660002 0.19599999 0.34999999
-0.64399999 -6.868 0.19599999 0.37
-0.62300003 -6.8759999 0.19599999 0.41
-0.60100001 -6.8759999 0.19599999 0.38
-0.579 -6.8720002 0.19599999 0.38
-0.56900001 -6.8790002 0.19599999 0.34999999
-0.54699999 -6.8730001 0.19599999 0.38999999
-0.52499998 -6.8730001 0.19599999 0.38
-0.50400001 -6.8779998 0.19599999 0.37
-0.48100001 -6.8720002 0.19599999 0.38
-0.46000001 -6.8709998 0.19599999 0.36000001
-0.43799999 -6.8790002 0.19599999 0.36000001
-0.42699999 -6.8649998 0.19599999 0.38
-0.40599999 -6.8769999 0.19599999 0.37
-0.384 -6.8759999 0.19599999 0.38
-0.36199999 -6.869 0.19599999 0.37
-0.34099999 -6.8720002 0.19599999 0.37
-0.31900001 -6.8790002 0.19599999 0.34
-0.308 -6.8740001 0.19599999 0.34
-0.287 -6.8790002 0.19599999 0.34
-0.26499999 -6.8790002 0.19599999 0.34
-0.243 -6.8499999 0.19599999 0.41
-0.22 -6.8189998 0.19599999 0.36000001
-0.199 -6.816 0.19599999 0.28999999
-0.177 -6.8179998 0.19599999 0.41999999
-0.167 -6.8319998 0.19599999 0.36000001
-0.145 -6.829 0.19599999 0.28999999
-0.124 -6.8330002 0.19599999 0.37
-0.102 -6.836 0.19599999 0.37
-0.081 -6.836 0.19599999 0.31
-0.059999999 -6.8379998 0.19599999 0.44999999
-0.037999999 -6.8400002 0.19599999 0.28999999
-0.027000001 -6.8439999 0.19599999 0.36000001
-0.0060000001 -6.8330002 0.19599999 0.34999999
0.016000001 -6.8369999 0.19599999 0.40000001
0.037 -6.8319998 0.19599999 0.40000001
0.059 -6.8280001 0.19599999 0.31999999
0.079999998 -6.8379998 0.19599999 0.36000001
0.101 -6.8299999 0.19599999 0.41
0.123 -6.8330002 0.19599999 0.36000001
0.134 -6.8369999 0.19599999 0.34
0.155 -6.8390002 0.19599999 0.38
0.177 -6.8379998 0.19599999 0.37
0.199 -6.8540001 0.19599999 0.41
0.22 -6.8390002 0.19599999 0.31
0.241 -6.8340001 0.19599999 0.34
0.252 -6.842 0.19599999 0.34
0.27399999 -6.8410001 0.19599999 0.34999999
0.29499999 -6.8379998 0.19599999 0.38
0.31600001 -6.8270001 0.19599999 0.28
0.338 -6.8340001 0.19599999 0.31999999
0.36000001 -6.8390002 0.19599999 0.33000001
0.382 -6.842 0.19599999 0.25999999
0.39300001 -6.8530002 0.19599999 0.46000001
0.41499999 -6.8520002 0.19599999 0.30000001
0.43900001 -6.8889999 0.19599999 0.28999999
0.461 -6.8909998 0.19599999 0.36000001
0.48199999 -6.8920002 0.19599999 0.34999999
0.50400001 -6.8959999 0.19599999 0.34
0.52600002 -6.8940001 0.19599999 0.34
0.53600001 -6.888 0.19599999 0.28999999
0.56 -6.9060001 0.19599999 0.18000001
0.60100001 -7.1230001 0.19499999 0.36000001
0.62199998 -7.1090002 0.19499999 0.50999999
0.64600003 -7.1269999 0.19499999 0.37
0.66600001 -7.1009998 0.19499999 0.58999997
0.69099998 -7.1230001 0.19499999 0.34
0.713 -7.1170001 0.19499999 0.44999999
0.72500002 -7.1240001 0.19499999 0.38
0.74800003 -7.1230001 0.19499999 0.68000001
0.76599997 -7.0890002 0.19499999 0.25999999
0.76800001 -6.9099998 0.19599999 0.090000004
0.79000002 -6.9089999 0.19599999 0
0.81099999 -6.9029999 0.19599999 0
0.82200003 -6.902 0.19599999 0
0.847 -6.921 0.19599999 0
0.86699998 -6.908 0.19599999 0
0.89499998 -6.9510002 0.19599999 0
0.912 -6.9109998 0.19599999 0
0.93400002 -6.9159999 0.19599999 0
0.95899999 -6.934 0.19599999 0
0.97000003 -6.9330001 0.19599999 0
0.99299997 -6.9400001 0.19599999 0
1.011 -6.9070001 0.19599999 0
1.0369999 -6.9330001 0.19599999 0
1.061 -6.9419999 0.19599999 0
1.082 -6.9330001 0.19599999 0
1.1 -6.908 0.19599999 0
1.11 -6.9000001 0.19599999 0
1.131 -6.8959999 0.19599999 0
1.158 -6.9239998 0.19599999 0
1.181 -6.9250002 0.19599999 0
1.202 -6.9169998 0.19599999 0
1.225 -6.921 0.19599999 0.12
1.2410001 -6.8860002 0.19599999 0.14
1.226 -6.6890001 0.19599999 0
1.277 -6.8969998 0.19599999 0
1.303 -6.9169998 0.19599999 0
1.326 -6.9190001 0.19599999 0
1.353 -6.9400001 0.19599999 0
1.376 -6.9439998 0.19499999 0
1.4 -6.9510002 0.19499999 0
1.411 -6.947 0.19499999 0
1.433 -6.9439998 0.19499999 0
1.451 -6.9219999 0.19599999 0
1.474 -6.9229999 0.19499999 0
1.503 -6.9499998 0.19499999 0
1.5190001 -6.9219999 0.19499999 0
1.55 -6.9559999 0.19499999 0
1.557 -6.9380002 0.19499999 0
1.579 -6.9330001 0.19499999 0.07
1.599 -6.9219999 0.19499999 0.079999998
1.624 -6.9310002 0.19499999 0.079999998
1.65 -6.941 0.19499999 0.079999998
1.673 -6.9400001 0.19499999 0.090000004
1.699 -6.9520001 0.19499999 0.13
1.7539999 -7.1279998 0.19499999 0.20999999
1.778 -7.1259999 0.19499999 0.34999999
1.801 -7.1240001 0.19499999 0.31999999
1.827 -7.1339998 0.19499999 0.34
1.839 -7.086 0.19499999 0.37
1.8150001 -6.9099998 0.19499999 0.25
1.829 -6.875 0.19499999 0.41999999
1.844 -6.8860002 0.19499999 0.36000001
1.878 -6.9260001 0.19499999 0.34999999
1.906 -6.9419999 0.19499999 0.34999999
1.927 -6.934 0.19499999 0.34
1.949 -6.9299998 0.19499999 0.28999999
1.975 -6.9369998 0.19499999 0.34999999
1.997 -6.9330001 0.19499999 0.30000001
2.01 -6.9349999 0.19499999 0.25
2.0350001 -6.9380002 0.19499999 0.5
2.0380001 -6.8709998 0.19499999 0.16
2.063 -6.8759999 0.19499999 0.31
2.0899999 -6.8860002 0.19499999 0.28999999
2.115 -6.8909998 0.19499999 0.43000001
2.1389999 -6.8920002 0.19499999 0.37
2.148 -6.881 0.19499999 0.15000001
2.175 -6.8920002 0.19499999 0.43000001
2.2030001 -6.9060001 0.19499999 0.25
2.223 -6.8930001 0.19499999 0.18000001
2.2490001 -6.8990002 0.19499999 0.40000001
2.2709999 -6.8920002 0.19499999 0.23
2.2969999 -6.8979998 0.19499999 0.27000001
2.309 -6.9000001 0.19499999 0.25999999
2.3329999 -6.8990002 0.19499999 0.2
2.358 -6.901 0.19499999 0.38999999
2.385 -6.908 0.19499999 0.25
2.4089999 -6.908 0.19499999 0.25999999
2.434 -6.9099998 0.19499999 0.2
2.457 -6.9060001 0.19499999 0.40000001
2.4719999 -6.9120002 0.19499999 0.25
2.4960001 -6.9120002 0.19499999 0.2
2.52 -6.9109998 0.19499999 0.34999999
2.543 -6.9050002 0.19499999 0.23
2.5699999 -6.9120002 0.19499999 0.22
2.5940001 -6.9099998 0.19499999 0.30000001
2.6210001 -6.915 0.19499999 0.31
2.6340001 -6.9180002 0.19499999 0.27000001
2.6600001 -6.9190001 0.19499999 0.28
2.704 -6.9679999 0.19499999 0.34
2.733 -6.9759998 0.19499999 0.37
2.7590001 -6.9790001 0.19499999 0.38
2.7839999 -6.9780002 0.19499999 0.38
2.813 -6.9860001 0.19499999 0.38999999
2.8280001 -6.9920001 0.19499999 0.38999999
2.8529999 -6.9910002 0.19499999 0.38
2.8770001 -6.9850001 0.19499999 0.38
2.902 -6.9840002 0.19499999 0.41
2.9300001 -6.9889998 0.19499999 0.40000001
2.9549999 -6.987 0.19499999 0.38999999
2.9820001 -6.9910002 0.19499999 0.40000001
3.003 -7.0079999 0.19499999 0.33000001
3.0220001 -6.993 0.19499999 0.46000001
3.056 -7.0110002 0.19499999 0.28999999
3.075 -6.994 0.19499999 0.46000001
3.108 -7.0079999 0.19499999 0.27000001
3.1300001 -6.9990001 0.19499999 0.61000001
3.1440001 -6.9699998 0.19499999 0.37
3.1570001 -6.9710002 0.19499999 0.16
3.174 -6.9499998 0.19499999 0.34
3.1989999 -6.947 0.19499999 0.25
3.2249999 -6.9460001 0.19499999 0.33000001
3.2490001 -6.9419999 0.19499999 0.33000001
3.277 -6.9439998 0.19499999 0.20999999
3.302 -6.9390001 0.19499999 0.2
3.316 -6.941 0.19499999 0.28999999
3.3510001 -6.9580002 0.19400001 0.19
3.372 -6.9450002 0.19499999 0.34
3.4059999 -6.96 0.19400001 0.20999999
3.4289999 -6.9510002 0.19400001 0.34
3.46 -6.96 0.19400001 0.20999999
3.4679999 -6.947 0.19400001 0.34
3.497 -6.9499998 0.19400001 0.2
3.5220001 -6.947 0.19400001 0.36000001
3.562 -6.9710002 0.19400001 0.19
3.582 -6.954 0.19400001 0.36000001
3.6099999 -6.9559999 0.19400001 0.25
3.638 -6.9569998 0.19400001 0.2
3.652 -6.9559999 0.19400001 0.38
3.678 -6.9520001 0.19400001 0.25
3.704 -6.9489999 0.19400001 0.19
3.7320001 -6.948 0.19400001 0.28
3.7620001 -6.9520001 0.19400001 0.20999999
3.7920001 -6.954 0.19400001 0.52999997
3.8469999 -7.0029998 0.19400001 0.27000001
3.8640001 -7.0079999 0.19400001 0.38
3.8889999 -7.0009999 0.19400001 0.31
3.925 -7.013 0.19400001 0.23999999
3.9089999 -6.9349999 0.19400001 0.54000002
4.098 -7.2140002 0.19400001 0.23
4.1370001 -7.2290001 0.19400001 0.2
4.1589999 -7.2160001 0.19400001 0
4.1739998 -7.2140002 0.19400001 0
4.164 -7.1459999 0.19400001 0
4.1680002 -7.1020002 0.19400001 0.079999998
4.1719999 -7.0580001 0.19400001 0.16
4.2030001 -7.0599999 0.19400001 0.090000004
4.2379999 -7.0669999 0.19400001 0.079999998
4.2620001 -7.0570002 0.19400001 0.16
4.283 -7.066 0.19400001 0.1
4.3130002 -7.066 0.19400001 0.079999998
4.3410001 -7.0609999 0.19400001 0.15000001
4.3660002 -7.053 0.19400001 0.1
4.3990002 -7.0560002 0.19400001 0.090000004
4.4260001 -7.0500002 0.19400001 0
4.4590001 -7.053 0.19400001 0.13
4.4829998 -7.066 0.193 0.16
4.5019999 -7.0469999 0.19400001 0.090000004
4.5359998 -7.052 0.193 0.079999998
4.5780001 -7.0669999 0.193 0.14
4.5999999 -7.053 0.193 0.2
4.6300001 -7.0500002 0.193 0.11
4.6630001 -7.052 0.193 0
4.6820002 -7.0570002 0.193 0.12
4.711 -7.052 0.193 0.090000004
4.7449999 -7.0549998 0.193 0.090000004
4.776 -7.0539999 0.193 0.14
4.8039999 -7.0469999 0.193 0.1
4.8410001 -7.053 0.193 0.14
4.8769999 -7.0570002 0.193 0.13
4.8649998 -7.0170002 0.193 0.16
4.823 -6.9099998 0.193 0.38
4.9590001 -7.0560002 0.193 0.1
4.9959998 -7.0619998 0.193 0.14
5.0320001 -7.066 0.193 0.1
5.066 -7.066 0.193 0.2
5.0890002 -7.052 0.193 0.12
5.243 -7.2389998 0.193 0.31999999
5.237 -7.184 0.193 0.30000001
5.2449999 -7.1479998 0.193 0.36000001
5.25 -7.1079998 0.193 0.30000001
5.2540002 -7.0669999 0.193 0.36000001
5.2810001 -7.0570002 0.193 0.34
5.3039999 -7.0650001 0.193 0.34
5.329 -7.0510001 0.193 0.34
5.3660002 -7.0539999 0.193 0.28999999
5.3649998 -7.007 0.193 0.36000001
5.421 -7.0339999 0.193 0.20999999
5.4310002 -7.0009999 0.193 0.19
5.4660001 -7.0009999 0.193 0.30000001
5.487 -7.0050001 0.193 0.34999999
5.5279999 -7.0120001 0.193 0.41999999
5.5560002 -7.0019999 0.193 0.16
5.5970001 -7.0079999 0.193 0.38999999
5.6409998 -7.0180001 0.193 0.23999999
5.6789999 -7.0190001 0.192 0.23
5.7179999 -7.0229998 0.192 0.38
5.7459998 -7.0339999 0.192 0.2
5.7859998 -7.0370002 0.192 0.33000001
5.8210001 -7.0349998 0.192 0.19
5.8569999 -7.033 0.192 0.31999999
5.8909998 -7.0279999 0.192 0.20999999
5.9320002 -7.033 0.192 0.2
5.9749999 -7.0380001 0.192 0.31
6.0050001 -7.052 0.192 0.31
6.046 -7.0539999 0.192 0.30000001
6.1059999 -7.079 0.192 0.23
6.151 -7.085 0.192 0.15000001
6.2610002 -7.1669998 0.192 0.41
6.3060002 -7.1719999 0.192 0.38999999
6.3309999 -7.1560001 0.192 0.5
6.3010001 -7.099 0.192 0.37
6.3299999 -7.0869999 0.192 0.31999999
6.3850002 -7.1030002 0.192 0.31999999
6.4289999 -7.1059999 0.192 0.34999999
6.4679999 -7.105 0.192 0.34
6.5100002 -7.105 0.192 0.34999999
6.5430002 -7.0970001 0.192 0.34999999
6.5809999 -7.1160002 0.191 0.27000001
11.615 -12.45 0.18000001 0.31
11.604 -12.361 0.18000001 0.44
11.581 -12.259 0.18000001 0.47999999
11.556 -12.156 0.18000001 0.44
11.532 -12.055 0.18099999 0.46000001
11.479 -11.962 0.18099999 0.5
11.444 -11.851 0.18099999 0.49000001
11.42 -11.752 0.18099999 0.44999999
11.396 -11.655 0.18099999 0.44
11.372 -11.558 0.18099999 0.47
11.354 -11.467 0.18099999 0.5
11.335 -11.376 0.182 0.46000001
11.305 -11.275 0.182 0.47
11.256 -11.191 0.182 0.46000001
11.237 -11.102 0.182 0.5
11.21 -11.007 0.182 0.55000001
11.186 -10.914 0.182 0.66000003
7.8759999 -7.6479998 0.189 0.20999999
7.8559999 -7.5799999 0.19 0.38
7.9089999 -7.6079998 0.189 0.41
7.9809999 -7.6290002 0.189 0.25
8.1210003 -7.664 0.189 0.44999999
8.177 -7.6690001 0.189 0.44999999
8.2220001 -7.6620002 0.189 0.43000001
8.2779999 -7.6659999 0.189 0.47
8.2989998 -7.6609998 0.189 0.63
8.3769999 -7.6849999 0.189 0.37
8.382 -7.6409998 0.189 0.17
8.6450005 -7.8309999 0.18799999 0.19
8.6949997 -7.7280002 0.18799999 0.68000001
8.7860003 -7.7839999 0.18799999 0
8.8380003 -7.6830001 0.18799999 0.40000001
8.8620005 -7.6550002 0.18799999 0.27000001
8.9300003 -7.665 0.18799999 0.14
8.9899998 -7.6659999 0.18799999 0.57999998
9.0150003 -7.664 0.18799999 0.27000001
9.1110001 -7.6960001 0.18799999 0
9.158 -7.6859999 0.18799999 0
9.3509998 -7.6989999 0.18799999 0.41999999
9.3879995 -7.6789999 0.18799999 0.23
9.4560003 -7.71 0.18799999 0
9.5860004 -7.6669998 0.18700001 0.54000002
9.6960001 -7.7049999 0.18700001 0.23
9.7449999 -7.6939998 0.18700001 0
10.078 -7.9050002 0.18700001 0
9.9370003 -7.7189999 0.18700001 0.28
9.9820004 -7.7030001 0.18700001 0.38999999
10.054 -7.7080002 0.18700001 0.19
10.076 -7.6760001 0.18700001 0.20999999
10.076 -7.6259999 0.18700001 0.38
10.078 -7.5770001 0.18700001 0.28999999
10.04 -7.5240002 0.18700001 0.44
10.031 -7.4689999 0.18700001 0.37
10.023 -7.414 0.18700001 0.36000001
10.004 -7.3509998 0.18700001 0.36000001
9.9910002 -7.2940001 0.18700001 0.37
10.001 -7.2529998 0.18700001 0.38
10.058 -7.2459998 0.18700001 0.34999999
10.112 -7.2610002 0.18700001 0.38
10.082 -7.1919999 0.18700001 0.18000001
10.097 -7.1539998 0.18700001 0.57999998
10.145 -7.1409998 0.18700001 0.28
10.281 -7.1880002 0.18700001 0.19
10.31 -7.1599998 0.18700001 0.18000001
10.562 -7.2849998 0.18700001 0.67000002
10.537 -7.244 0.18700001 0.31999999
10.525 -7.1869998 0.18700001 0.38999999
10.511 -7.1290002 0.18700001 0.18000001
10.513 -7.0830002 0.18700001 0.16
10.547 -7.0580001 0.18700001 0.14
14.136 -9.3210001 0.18000001 0.55000001
11.166 -7.3439999 0.186 0.28999999
11.181 -7.303 0.186 0.28
11.232 -7.2859998 0.186 0.12
14.031 -9.0319996 0.18099999 0.40000001
14.029 -8.9680004 0.18099999 0.28999999
14.021 -8.9020004 0.18099999 0.56999999
13.969 -8.8380003 0.18099999 0.2
11.659 -7.3309999 0.185 0.40000001
13.974 -8.658 0.18099999 0.55000001
13.875 -8.5369997 0.18099999 0.16
13.867 -8.4720001 0.18099999 0.33000001
13.851 -8.4029999 0.18099999 0.23999999
12.062 -7.2950001 0.185 0.51999998
12.203 -7.3280001 0.184 0.25
12.286 -7.3260002 0.184 0.2
13.761 -8.085 0.182 0.43000001
13.747 -8.0179996 0.182 0.31999999
13.737 -7.9549999 0.182 0.56
12.896 -7.4159999 0.183 0.20999999
12.746 -7.3039999 0.184 0
13.349 -7.592 0.183 0.079999998
13.615 -7.6859999 0.182 0
13.546 -7.592 0.182 0.12
13.318 -7.4089999 0.183 0.2
13.308 -7.349 0.183 0.31999999
13.38 -7.3340001 0.183 0.16
13.418 -7.3270001 0.183 0.41
13.42 -7.2740002 0.183 0.20999999
13.457 -7.2389998 0.183 0.33000001
13.448 -7.1799998 0.183 0.25
13.468 -7.1370001 0.183 0.30000001
13.555 -7.1279998 0.183 0.17
13.656 -7.1539998 0.183 0.18000001
13.739 -7.1420002 0.182 0.1
13.877 -7.158 0.182 0.14
13.944 -7.1370001 0.182 0.22
14.181 -7.2020001 0.182 0.28
14.305 -7.2080002 0.182 0.34
14.413 -7.2059999 0.18099999 0.41
14.514 -7.2280002 0.18099999 0.23
14.639 -7.2329998 0.18099999 0.44999999
14.75 -7.23 0.18099999 0.19
15.017 -7.302 0.18099999 0.40000001
15.031 -7.25 0.18099999 0.44
15.101 -7.2249999 0.18099999 0.20999999
15.223 -7.2249999 0.18000001 0.34
15.365 -7.2620001 0.18000001 0.44999999
15.453 -7.2449999 0.18000001 0.18000001
15.62 -7.263 0.18000001 0.2
15.727 -7.2519999 0.18000001 0.46000001
15.926 -7.283 0.17900001 0.38
15.985 -7.25 0.17900001 0.34
16.115999 -7.2480001 0.17900001 0.31999999
16.365999 -7.329 0.17900001 0
16.216 -7.2010002 0.17900001 0
17.559 -7.7290001 0.177 0.090000004
17.357 -7.5110002 0.177 0
17.549999 -7.5289998 0.177 0.1
19.924999 -8.4329996 0.17299999 0.54000002
19.931 -8.3620005 0.17299999 0.37
17.490999 -7.277 0.177 0.25
19.615 -8.085 0.17399999 0.15000001
19.620001 -8.0150003 0.17399999 0.33000001
19.631001 -7.948 0.17399999 0.38
19.639 -7.8790002 0.17399999 0.34999999
19.629 -7.8400002 0.17399999 0.41
19.646 -7.7750001 0.17399999 0.36000001
19.643999 -7.7030001 0.17399999 0.41999999
19.639999 -7.6300001 0.17399999 0.33000001
19.662001 -7.5679998 0.17399999 0.5
19.646999 -7.4910002 0.17399999 0.34999999
19.603001 -7.4039998 0.17399999 0.2
19.849001 -7.461 0.17399999 0.57999998
19.674999 -7.3260002 0.17399999 0.16
20.344 -7.5009999 0.17299999 0.30000001
20.372999 -7.4390001 0.17299999 0
26.502001 -9.5749998 0.163 0
22.486 -7.9289999 0.17 0.18000001
22.421 -7.7480001 0.17 0.38
22.507999 -7.6989999 0.17 0.27000001
22.5 -7.6170001 0.17 0.44999999
22.509001 -7.5419998 0.17 0.57999998
22.724001 -7.5339999 0.169 0.23999999
23.681999 -7.809 0.168 0.31
23.792 -7.763 0.168 0.36000001
23.832001 -7.6929998 0.168 0.28
23.806 -7.6020002 0.168 0.61000001
23.860001 -7.5370002 0.168 0
25.284 -7.8109999 0.16500001 0.25999999
25.487 -7.8299999 0.16500001 0.14
25.933001 -7.8769999 0.164 0.16
26.000999 -7.809 0.164 0.41
26.02 -7.7249999 0.164 0.30000001
26.042 -7.6430001 0.164 0.51999998
26.306 -7.6300001 0.164 0
26.540001 -7.6079998 0.164 0
29.032 -8.2700005 0.16 0
29.351999 -8.2609997 0.15899999 0.11
29.565001 -8.1210003 0.15899999 0.36000001
29.537001 -8.0139999 0.15899999 0.34
29.506001 -7.9060001 0.15899999 0.25
29.511 -7.8080001 0.15899999 0.47999999
29.523001 -7.7620001 0.15899999 0.28
29.652 -7.6960001 0.15899999 0.28999999
30.063999 -7.7020001 0.15800001 0.23
30.108999 -7.6129999 0.15800001 0
36.548 -9.1129999 0.148 0.059999999
36.855999 -9.066 0.148 0
37.09 -9 0.147 0.07
37.355 -9.0019999 0.147 0
37.352001 -8.8780003 0.147 0
37.783001 -8.8540001 0.146 0.12
37.978001 -8.7740002 0.146 0.1
38.241001 -8.7089996 0.146 0
38.474998 -8.6350002 0.145 0
38.749001 -8.5679998 0.145 0.07
39.02 -8.5640001 0.145 0.14
39.056 -8.4429998 0.145 0.12
39.023998 -8.3079996 0.145 0.17
38.952 -8.165 0.145 0.12
38.987 -8.0439997 0.145 0.31
43.181999 -8.6239996 0.138 0.31
43.334 -8.5839996 0.138 0.090000004
43.644001 -8.5030003 0.138 0.15000001
43.936001 -8.4160004 0.13699999 0.090000004
44.238998 -8.3299999 0.13699999 0.14
44.537998 -8.2419996 0.13600001 0.090000004
44.845001 -8.1529999 0.13600001 0
45.155998 -8.0629997 0.13500001 0
45.512001 -8.052 0.13500001 0
46.528 -8.0810003 0.133 0
47.370998 -8.0740004 0.132 0
48.306 -8.0760002 0.131 0
49.307999 -8.0839996 0.12899999 0
50.360001 -8.0939999 0.127 0
54.617001 -8.5120001 0.121 0.30000001
54.596001 -8.3330002 0.121 0
55.286999 -8.2600002 0.12 0
56.636002 -8.2799997 0.118 0
57.999001 -8.2919998 0.116 0
59.535999 -8.3199997 0.113 0
61.112 -8.4420004 0.111 0
71.146004 -9.5959997 0.094999999 0
71.093002 -9.3620005 0.094999999 0
71.092003 -9.1350002 0.094999999 0
71.037003 -8.901 0.096000001 0
71.124001 -8.6850004 0.094999999 0
74.209999 -8.8240004 0.090999998 0
74.642998 -8.7559996 0.090000004 0
76.778 -8.7620001 0.086999997 0
60.238998 -4.0180001 0.113 0
59.993 -3.812 0.113 0
60.084999 -3.628 0.113 0
79.808998 -4.434 0.082999997 0
61.931 -3.2509999 0.11 0
79.903999 -3.684 0.082999997 0
79.922997 -3.4330001 0.082999997 0
74.302002 -2.96 0.090999998 0
78.93 5.474 -0.41800001 0
77.523003 8.1990004 -0.40900001 0.28999999
77.435997 8.4359999 -0.40799999 0
14.707 2.211 0.089000002 0.52999997
14.686 2.2550001 0.089000002 0.56
14.39 2.256 0.090999998 0.13
13.905 2.2260001 0.094999999 0.25
13.894 2.2690001 0.094999999 0.44
13.898 2.3139999 0.094999999 0.34
13.246 2.25 0.1 0.47999999
13.237 2.2690001 0.1 0.58999997
11.791 2.063 0.112 0.25999999
11.615 2.0699999 0.113 0.27000001
11.429 2.0739999 0.114 0.22
11.273 2.0829999 0.116 0.15000001
11.16 2.099 0.116 0.33000001
11.126 2.128 0.117 0.47999999
11.119 2.145 0.117 0.36000001
11.098 2.177 0.117 0.37
11.088 2.211 0.117 0.34
11.075 2.2449999 0.117 0.33000001
11.071 2.2809999 0.117 0.34
11.06 2.3150001 0.117 0.41
11.037 2.346 0.117 0.23
11.047 2.3659999 0.117 0.36000001
11.036 2.4000001 0.117 0.31999999
11.032 2.4360001 0.117 0.34999999
11.023 2.47 0.117 0.36000001
11.023 2.506 0.117 0.34999999
11.019 2.5420001 0.117 0.36000001
11.014 2.5769999 0.117 0.36000001
11.02 2.5969999 0.117 0.36000001
11.022 2.6340001 0.117 0.36000001
11.025 2.671 0.117 0.38999999
11.016 2.7060001 0.117 0.36000001
11.016 2.7420001 0.116 0.34999999
11.023 2.7809999 0.116 0.33000001
11.02 2.8169999 0.116 0.34999999
11.035 2.839 0.116 0.34
11.045 2.8789999 0.116 0.34
11.053 2.918 0.116 0.30000001
11.059 2.957 0.116 0.34
11.054 2.993 0.116 0.28999999
11.079 3.0369999 0.115 0.25
11.083 3.075 0.115 0.23
11.092 3.096 0.115 0.18000001
11.149 3.1500001 0.115 0.28999999
11.218 3.207 0.114 0.20999999
11.268 3.26 0.114 0.25999999
11.304 3.309 0.113 0.34999999
11.381 3.3699999 0.112 0.28999999
11.589 3.471 0.111 0.23
11.498 3.4630001 0.111 0.1
27.441 8.3219995 -0.02 0.14
27.172001 8.3339996 -0.017999999 0.23999999
26.931999 8.3529997 -0.016000001 0.18000001
26.15 8.2010002 -0.0099999998 0.18000001
25.929001 8.2220001 -0.0080000004 0.43000001
11.249 3.6210001 0.113 0.14
11.246 3.6400001 0.113 0.37
11.249 3.6800001 0.113 0.16
24.999001 8.2309999 -0.0020000001 0.55000001
24.753 8.2370005 0 0.28999999
24.503 8.2390003 0.0020000001 0.25
24.252001 8.2399998 0.0040000002 0.16
23.847 8.1870003 0.0070000002 0.37
23.900999 8.2469997 0.0070000002 0.11
24.004999 8.3669996 0.0060000001 0.28
24.000999 8.4510002 0.0049999999 0.25
24.275999 8.6330004 0.003 0.19
24.653999 8.8540001 -0.001 0.16
24.646999 8.9390001 -0.001 0
24.334 8.9560003 0.0020000001 0.34999999
24.636 9.1540003 -0.001 0.27000001
24.620001 9.2370005 -0.001 0.19
24.525 9.2889996 -0.001 0.17
24.535 9.3809996 -0.001 0.13
21.32 8.2709999 0.026000001 0.5
21.132999 8.2749996 0.027000001 0.31999999
20.968 8.2860003 0.028000001 0.34999999
20.780001 8.2880001 0.029999999 0.30000001
20.466 8.3129997 0.032000002 0.69999999
20.49 8.3970003 0.030999999 0.36000001
20.497999 8.4759998 0.030999999 0.34
20.518 8.5220003 0.030999999 0.40000001
20.514999 8.5959997 0.030999999 0.44
24.646 10.413 -0.0049999999 0.34
24.667999 10.514 -0.0049999999 0.31999999
24.646 10.596 -0.0060000001 0.28999999
24.655001 10.691 -0.0060000001 0.41999999
21.065001 9.2180004 0.025 0.22
20.948 9.2060003 0.026000001 0.20999999
20.780001 9.21 0.027000001 0.31
21.073999 9.4189997 0.024 0.41
20.871 9.408 0.025 0.36000001
20.763 9.4379997 0.026000001 0.30000001
20.766001 9.5179996 0.026000001 0.56999999
20.749001 9.5889997 0.026000001 0.34999999
17.941 8.3290005 0.050000001 0.13
17.82 8.3409996 0.050999999 0.5
17.671 8.3389997 0.052000001 0.34
17.542999 8.3470001 0.052999999 0.31999999
17.419001 8.3549995 0.054000001 0.37
17.294001 8.3620005 0.055 0.31999999
17.172001 8.3699999 0.055 0.34
17.066999 8.3529997 0.056000002 0.34999999
16.938999 8.3559999 0.057 0.30000001
16.843 8.3739996 0.057999998 0.30000001
16.844999 8.4420004 0.057 0.47999999
16.836 8.5030003 0.057 0.31999999
16.775 8.5389996 0.057999998 0.5
16.714001 8.5410004 0.057999998 0.31999999
16.844 8.6739998 0.057 0.23
16.846001 8.7419996 0.056000002 0.61000001
16.827999 8.8000002 0.056000002 0.31999999
16.827 8.8669996 0.056000002 0.27000001
16.815001 8.9280005 0.056000002 0.18000001
16.011999 8.5670004 0.063000001 0.28999999
15.945 8.5640001 0.063000001 0.52999997
16.827 9.1040001 0.055 0.25999999
16.841999 9.1809998 0.055 0.23
16.829 9.2419996 0.055 0.31999999
16.820999 9.3070002 0.054000001 0.2
16.832001 9.382 0.054000001 0.18000001
16.84 9.4560003 0.054000001 0
16.507999 9.3039999 0.057 0.090000004
14.971 8.5649996 0.07 0.25
14.883 8.5769997 0.071000002 0.47999999
14.821 8.6040001 0.071000002 0
16.431 9.6040001 0.056000002 0
16.421 9.6680002 0.056000002 0.07
14.069 8.3760004 0.077 0.23
13.984 8.3859997 0.077 0.36000001
13.903 8.3970003 0.078000002 0.36000001
13.81 8.3999996 0.079000004 0.40000001
13.729 8.4099998 0.079000004 0.37
13.634 8.4110003 0.079999998 0.37
13.561 8.3959999 0.079999998 0.36000001
13.479 8.4029999 0.081 0.37
13.395 8.4099998 0.081 0.37
13.319 8.4209995 0.082000002 0.31999999
13.242 8.4300003 0.082000002 0.55000001
13.131 8.4180002 0.082999997 0.23999999
13.076 8.441 0.082999997 0.31999999
12.997 8.4189997 0.083999999 0.23999999
13.128 8.5620003 0.082000002 0.25
13.157 8.6400003 0.082000002 0.47999999
13.171 8.7089996 0.081 0.28
13.184 8.776 0.081 0.61000001
13.827 9.3290005 0.074000001 0.60000002
13.84 9.3699999 0.074000001 0.2
13.832 9.4280005 0.074000001 0.44999999
13.841 9.4969997 0.074000001 0.36000001
13.842 9.5620003 0.072999999 0.44999999
13.848 9.6309996 0.072999999 0.38
13.834 9.6859999 0.072999999 0.46000001
13.836 9.7519999 0.072999999 0.36000001
13.851 9.7939997 0.071999997 0.46000001
13.854 9.8620005 0.071999997 0.36000001
13.842 9.9200001 0.071999997 0.44999999
13.85 9.9910002 0.071000002 0.36000001
13.851 10.058 0.071000002 0.41999999
13.849 10.123 0.071000002 0.37
13.843 10.185 0.07 0.46000001
13.867 10.236 0.07 0.36000001
13.857 10.297 0.07 0.44999999
13.86 10.366 0.07 0.36000001
13.851 10.428 0.068999998 0.44999999
13.855 10.499 0.068999998 0.36000001
13.849 10.563 0.068999998 0.44
13.848 10.631 0.068000004 0.37
13.866 10.679 0.068000004 0.44999999
13.859 10.744 0.068000004 0.41999999
13.86 10.814 0.067000002 0.36000001
13.873 10.895 0.067000002 0.56999999
13.855 10.951 0.067000002 0.30000001
13.867 11.031 0.066 0.38
13.861 11.097 0.066 0.19
10.492 8.4350004 0.1 0.28999999
10.456 8.46 0.1 0.37
10.398 8.4680004 0.1 0.40000001
10.325 8.4630003 0.101 0.34999999
10.261 8.4650002 0.101 0.34999999
10.214 8.4799995 0.101 0.34
10.151 8.4820004 0.102 0.44999999
10.098 8.4639997 0.102 0.34999999
10.043 8.4729996 0.102 0.38999999
9.9770002 8.4709997 0.103 0.40000001
9.9169998 8.4729996 0.103 0.34
9.8669996 8.4849997 0.103 0.40000001
9.8000002 8.4809999 0.104 0.38
9.7399998 8.4829998 0.104 0.41999999
9.7019997 8.4770002 0.104 0.25
9.6440001 8.4799995 0.105 0.55000001
9.5710001 8.4689999 0.105 0.23
9.5220003 8.4790001 0.105 0.38999999
9.5469999 8.5559998 0.105 0.38999999
9.5489998 8.6110001 0.105 0.34
9.5600004 8.6759996 0.104 0.41
9.5609999 8.7040005 0.104 0.36000001
9.5649996 8.7620001 0.104 0.38
9.5740004 8.8260002 0.103 0.37
9.5640001 8.8730001 0.103 0.43000001
9.5670004 8.9309998 0.103 0.30000001
9.908 9.3070002 0.098999999 0.44999999
9.9530001 9.408 0.097999997 0.37
9.9940004 9.4759998 0.097000003 0.37
10.254 9.783 0.093999997 0.38
10.256 9.8470001 0.093999997 0.38999999
10.257 9.9090004 0.093999997 0.37
10.267 9.9820004 0.093000002 0.38
10.252 10.029 0.093000002 0.44
10.263 10.072 0.093000002 0.36000001
10.277 10.149 0.092 0.47999999
10.134 10.072 0.093000002 0.27000001
10.09 10.091 0.093000002 0.38
10.071 10.135 0.093000002 0.2
10.249 10.378 0.090999998 0.28999999
10.264 10.459 0.090000004 0.38
10.266 10.527 0.090000004 0.44999999
10.205 10.497 0.090999998 0.30000001
10.191 10.549 0.090000004 0.36000001
10.188 10.613 0.090000004 0.34
10.181 10.672 0.090000004 0.36000001
10.175 10.733 0.089000002 0.34999999
10.268 10.899 0.088 0.30000001
10.279 10.979 0.086999997 0.28
10.289 11.025 0.086999997 0.46000001
10.299 11.105 0.086999997 0.28999999
10.289 11.164 0.086000003 0.55000001
10.231 11.171 0.086999997 0.38
10.148 11.151 0.086999997 0.28
10.144 11.217 0.086999997 0.34
10.091 11.23 0.086999997 0.23999999
10.103 11.278 0.086999997 0.37
10.04 11.279 0.086999997 0.38
9.9779997 11.28 0.086999997 0.38999999
9.9139996 11.28 0.088 0.30000001
9.8559999 11.286 0.088 0.43000001
9.842 11.341 0.088 0.41
9.842 11.412 0.086999997 0.38
9.8610001 11.472 0.086999997 0.37
9.8629999 11.547 0.086000003 0.37
9.8549995 11.611 0.086000003 0.37
9.8549995 11.685 0.085000001 0.36000001
9.8520002 11.755 0.085000001 0.37
9.8520002 11.831 0.085000001 0.36000001
9.8540001 11.909 0.083999999 0.20999999
13.759 16.666 0.035999998 0.58999997
13.694 16.693001 0.035999998 0.37
6.8829999 8.5190001 0.12 0.44999999
6.8379998 8.5190001 0.12 0.37
6.7930002 8.5170002 0.12 0.41
6.7470002 8.5150003 0.12 0.34999999
6.7199998 8.5080004 0.121 0.34
6.6820002 8.5150003 0.121 0.30000001
6.6409998 8.5170002 0.121 0.34
6.599 8.5190001 0.121 0.34
6.5609999 8.5249996 0.121 0.36000001
6.52 8.5270004 0.121 0.34
6.4790001 8.5279999 0.122 0.34
6.4489999 8.5179996 0.122 0.36000001
6.4120002 8.5240002 0.122 0.34999999
6.369 8.5229998 0.122 0.34
6.3330002 8.5299997 0.122 0.34
6.2909999 8.5290003 0.122 0.34999999
6.2470002 8.526 0.123 0.36000001
6.21 8.5310001 0.123 0.36000001
6.1820002 8.5220003 0.123 0.38
6.145 8.526 0.123 0.34
6.099 8.5200005 0.123 0.34
6.0630002 8.526 0.124 0.33000001
6.0229998 8.5249996 0.124 0.36000001
5.9920001 8.5389996 0.124 0.38
5.9710002 8.566 0.124 0.36000001
5.9749999 8.6000004 0.123 0.34
5.974 8.6569996 0.123 0.31
5.9759998 8.7180004 0.123 0.36000001
5.9790001 8.7810001 0.122 0.31
5.9780002 8.8380003 0.122 0.28999999
5.9780002 8.8979998 0.121 0.36000001
5.9819999 8.9650002 0.121 0.34
5.9889998 9.0059996 0.121 0.31999999
5.9809999 9.0550003 0.12 0.30000001
5.9860001 9.1260004 0.12 0.38
5.9809999 9.1789999 0.12 0.28
5.9809999 9.243 0.119 0.34
5.9770002 9.3009996 0.119 0.38
5.973 9.3579998 0.118 0.31
5.987 9.4130001 0.118 0.33000001
5.9910002 9.4840002 0.118 0.25999999
5.9829998 9.5389996 0.117 0.43000001
5.9629998 9.573 0.117 0.16
7.8759999 12.716 0.088 0.15000001
7.8140001 12.705 0.088 0.1
7.7709999 12.725 0.088 0.15000001
7.7350001 12.711 0.089000002 0.23
5.9879999 9.9209995 0.115 0.20999999
5.9959998 10.005 0.114 0.18000001
5.9889998 10.065 0.114 0.34
5.98 10.121 0.113 0.19
5.993 10.216 0.113 0
7.4099998 12.712 0.090000004 0
7.3629999 12.723 0.090000004 0.13
7.3270001 12.706 0.090000004 0.090000004
7.2750001 12.709 0.090999998 0.15000001
7.2280002 12.718 0.090999998 0.1
7.1750002 12.718 0.090999998 0.15000001
7.1220002 12.717 0.090999998 0.1
7.0749998 12.727 0.090999998 0.16
7.0240002 12.729 0.090999998 0.16
6.987 12.71 0.092 0.1
6.9359999 12.711 0.092 0.15000001
6.8850002 12.713 0.092 0.1
6.8379998 12.721 0.092 0.15000001
6.7849998 12.719 0.092 0.16
6.73 12.712 0.093000002 0.1
6.6849999 12.723 0.093000002 0.16
6.6539998 12.712 0.093000002 0.16
6.6009998 12.708 0.093000002 0.12
6.2600002 12.242 0.097999997 0.43000001
6.2090001 12.237 0.097999997 0.38999999
6.1700001 12.254 0.097999997 0.38999999
6.1199999 12.252 0.097999997 0.41
6.0949998 12.249 0.097999997 0.36000001
6.0419998 12.24 0.097999997 0.57999998
5.9990001 12.25 0.097999997 0.12
6.0040002 12.358 0.097999997 0.36000001
6.0050001 12.458 0.097000003 0.36000001
6.0009999 12.551 0.096000001 0.38
6 12.649 0.096000001 0.37
6.02 12.743 0.094999999 0.34999999
6.0180001 12.844 0.093999997 0.38
6.013 12.937 0.093999997 0.33000001
6.0159998 13.05 0.093000002 0.34
6.0120001 13.151 0.092 0.36000001
6.013 13.262 0.090999998 0.18000001
6.0219998 13.392 0.090000004 0.63999999
6.02 13.446 0.090000004 0.30000001
6.02 13.558 0.089000002 0.18000001
7.3979998 16.788 0.061000001 0.41
7.3379998 16.797001 0.061000001 0.30000001
7.2779999 16.801001 0.061999999 0.56999999
7.2160001 16.804001 0.061999999 0.31
6.013 14.134 0.085000001 0.31
6.027 14.23 0.083999999 0.20999999
7.0570002 16.795 0.061999999 0.47
6.9920001 16.788 0.063000001 0.31999999
6.9359999 16.802 0.063000001 0.36000001
6.026 14.737 0.079999998 0.22
6.8179998 16.816 0.063000001 0.54000002
6.7550001 16.813 0.063000001 0.33000001
6.046 15.124 0.078000002 0.30000001
6.039 15.245 0.077 0.30000001
6.1040001 15.549 0.074000001 0.31999999
6.1560001 15.827 0.071999997 0.30000001
6.131 15.909 0.071999997 0.30000001
6.1269999 16.049999 0.071000002 0.23999999
6.0679998 16.047001 0.071000002 0.61000001
6.0500002 16.075001 0.071000002 0.27000001
6.0510001 16.23 0.068999998 0.28
6.053 16.393999 0.068000004 0.36000001
6.0469999 16.535 0.067000002 0.28
6.0450001 16.691 0.066 0.36000001
6.046 16.860001 0.064999998 0.28999999
6.0419998 17.017 0.064000003 0.43000001
8.4090004 23.768 0.0070000002 0.25
8.3310003 23.787001 0.0070000002 0.30000001
8.2480001 23.788 0.0070000002 0.34
8.1610003 23.778 0.0080000004 0.28999999
8.085 23.802 0.0080000004 0.33000001
7.9980001 23.791 0.0080000004 0.28999999
7.9169998 23.797001 0.0080000004 0.33000001
7.842 23.82 0.0080000004 0.34
7.7919998 23.794001 0.0089999996 0.27000001
7.7129998 23.805 0.0089999996 0.34999999
7.631 23.806 0.0089999996 0.22
7.5469999 23.804001 0.0089999996 0.27000001
7.4619999 23.795 0.0089999996 0.27000001
7.3870001 23.816 0.0089999996 0.34999999
7.2989998 23.797001 0.0099999998 0.20999999
6.2719998 20.577 0.035999998 0.20999999
6.2119999 20.612 0.035999998 0.51999998
7.0970001 23.804001 0.0099999998 0.27000001
7.0170002 23.809 0.0099999998 0.30000001
6.9400001 23.820999 0.0099999998 0.28999999
6.8540001 23.806 0.011 0.30000001
6.776 23.816 0.011 0.31999999
6.7329998 23.806 0.011 0.30000001
6.5900002 23.584 0.013 0.30000001
6.5120001 23.591 0.013 0.2
6.4400001 23.621 0.013 0.18000001
6.3800001 23.691999 0.013 0.19
3.053 11.681 0.111 0.41999999
3.039 11.7 0.111 0.63999999
2.9590001 11.543 0.112 0.28999999
2.9130001 11.666 0.111 0.51999998
2.875 11.673 0.111 0.38999999
2.8329999 11.659 0.111 0.67000002
2.806 11.708 0.111 0.38999999
2.8210001 11.849 0.11 0.34
2.823 12.027 0.109 0.37
2.8169999 12.172 0.107 0.34
2.816 12.339 0.106 0.36000001
2.813 12.505 0.105 0.38
2.8099999 12.68 0.104 0.34
2.8069999 12.853 0.102 0.34999999
2.823 13.023 0.101 0.36000001
2.8199999 13.208 0.1 0.38
2.8150001 13.391 0.097999997 0.37
2.8150001 13.598 0.097000003 0.38
2.812 13.802 0.094999999 0.37
2.8099999 14.017 0.093000002 0.34999999
2.812 14.253 0.090999998 0.18000001
2.8080001 14.354 0.090999998 0.43000001
2.7620001 14.357 0.090999998 0.43000001
2.7119999 14.34 0.090999998 0.66000003
2.661 14.317 0.090999998 0.56
2.671 14.624 0.089000002 0.23
2.6229999 14.618 0.089000002 0.31999999
2.5710001 14.595 0.089000002 0.25999999
2.5420001 14.566 0.089000002 0.33000001
2.4949999 14.564 0.089000002 0.22
2.4460001 14.552 0.090000004 0.28
2.401 14.565 0.090000004 0.27000001
2.3559999 14.577 0.090000004 0.23
2.3099999 14.584 0.090000004 0.28
2.2609999 14.571 0.090000004 0.28
2.2149999 14.574 0.090000004 0.28
2.1889999 14.56 0.090000004 0.25999999
2.1459999 14.583 0.090000004 0.36000001
2.0969999 14.568 0.090000004 0.25
2.0510001 14.574 0.090000004 0.34999999
2.006 14.585 0.090000004 0.31999999
1.9579999 14.577 0.090000004 0.30000001
1.911 14.575 0.090000004 0.31
1.887 14.566 0.090000004 0.28
1.84 14.568 0.090000004 0.31999999
1.793 14.56 0.090000004 0.27000001
1.747 14.567 0.090000004 0.31
1.7 14.559 0.090000004 0.31999999
1.655 14.57 0.090000004 0.28
1.609 14.571 0.090000004 0.18000001
1.585 14.562 0.090000004 0.55000001
1.539 14.569 0.090000004 0.31
1.493 14.568 0.090999998 0.27000001
1.4450001 14.558 0.090999998 0.31999999
1.4 14.571 0.090999998 0.33000001
1.354 14.563 0.090999998 0.34999999
1.307 14.557 0.090999998 0.31999999
1.284 14.561 0.090999998 0.25
1.238 14.557 0.090999998 0.41
1.193 14.571 0.090999998 0.46000001
1.146 14.561 0.090999998 0.38
1.101 14.568 0.090999998 0.25999999
1.0549999 14.572 0.090999998 0.51999998
1.008 14.563 0.090999998 0.28
0.986 14.571 0.090999998 0.36000001
0.94 14.57 0.090999998 0.18000001
0.89300001 14.556 0.090999998 0.61000001
0.84799999 14.577 0.090999998 0.30000001
0.80199999 14.568 0.090999998 0.41
0.75599998 14.568 0.090999998 0.33000001
0.70999998 14.565 0.090999998 0.44
0.68699998 14.568 0.090999998 0.34999999
0.64099997 14.562 0.090999998 0.44
0.59600002 14.582 0.090999998 0.2
0.55000001 14.571 0.090999998 0.51999998
0.50400001 14.581 0.090999998 0.33000001
0.458 14.579 0.090999998 0.49000001
0.412 14.572 0.090999998 0.37
0.32300001 12.234 0.11 0.30000001
0.28400001 12.237 0.109 0.49000001
0.154 9.4189997 0.132 0.68000001
0.163 11.899 0.112 0.25999999
0.126 11.933 0.112 0.31999999
0.089000002 11.93 0.112 0.5
0.071999997 12.114 0.11 0.19
0.033 11.91 0.112 0.19
-0.0089999996 9.4779997 0.131 0.07
-0.039000001 9.3459997 0.132 0
-0.068999998 9.4799995 0.131 0.1
-0.117 11.947 0.112 0
-0.40000001 34.629002 -0.067000002 0
-0.192 11.91 0.112 0
-0.37799999 22.716 0.027000001 0
-0.44999999 22.761 0.026000001 0
-0.523 22.827999 0.026000001 0
-0.597 22.898001 0.025 0
-0.671 22.968 0.025 0
-1.107 34.616001 -0.067000002 0
-0.414 11.835 0.113 0
-0.44800001 11.741 0.113 0
-0.486 11.778 0.113 0
-0.52899998 9.4469995 0.131 0
-0.88999999 15.32 0.085000001 0
-0.94300002 12.173 0.11 0
-1.005 12.223 0.109 0
-1.045 12.245 0.109 0
-1.084 12.25 0.109 0.090000004
-1.559 17.115 0.07 0.14
-1.605 17.030001 0.071000002 0.22
-1.6569999 17.000999 0.071000002 0.36000001
-1.699 17.164 0.07 0.36000001
-1.756 17.181999 0.07 0.37
-1.812 17.197001 0.07 0.37
-1.868 17.212999 0.068999998 0.36000001
-1.925 17.229 0.068999998 0.37
-1.98 17.236 0.068999998 0.36000001
-2.036 17.246 0.068999998 0.36000001
-2.066 17.263 0.068999998 0.36000001
-2.1229999 17.282 0.068999998 0.34999999
