23.638 8.698 -0.76700002
23.695999 8.8039999 -0.77100003
23.709999 8.8940001 -0.77200001
23.586 8.9320002 -0.76800001
23.068001 8.7770004 -0.74699998
22.906 8.7980003 -0.74199998
21.353001 8.276 -0.67900002
21.176001 8.2840004 -0.67299998
20.997999 8.29 -0.66600001
20.83 8.3000002 -0.66000003
20.673 8.3120003 -0.65499997
20.528 8.2910004 -0.64899999
20.556 8.3780003 -0.65200001
20.561001 8.4549999 -0.653
20.562 8.5310001 -0.65399998
20.549 8.6020002 -0.65499997
24.351999 10.289 -0.815
24.375999 10.39 -0.81800002
23.297001 9.9720001 -0.773
23.174999 10.006 -0.76899999
20.66 8.9940004 -0.66500002
20.562 9.0279999 -0.662
20.558001 9.1029997 -0.66299999
20.569 9.1859999 -0.66399997
20.533001 9.2080002 -0.66299999
20.410999 9.2309999 -0.66000003
20.403999 9.3050003 -0.66000003
20.400999 9.3809996 -0.662
20.389999 9.4540005 -0.662
17.858999 8.3450003 -0.55599999
17.736 8.3549995 -0.55199999
17.608 8.3629999 -0.54699999
17.500999 8.3459997 -0.54299998
17.378 8.3540001 -0.53899997
17.253 8.3599997 -0.53500003
17.128 8.3660002 -0.53100002
17.007999 8.3739996 -0.52700001
16.898001 8.3850002 -0.523
16.902 8.4530001 -0.52499998
16.892 8.4820004 -0.52499998
16.837 8.5200005 -0.523
16.781 8.559 -0.52200001
16.674 8.5699997 -0.51899999
16.568001 8.5810003 -0.51499999
16.431999 8.5760002 -0.51099998
16.315001 8.5799999 -0.50700003
16.104 8.566 -0.49900001
16.232 8.6999998 -0.50599998
16.726 9.033 -0.52899998
16.877001 9.184 -0.537
16.877001 9.2530003 -0.53799999
16.871 9.3179998 -0.53899997
16.889 9.3629999 -0.54000002
16.881001 9.4280005 -0.54100001
16.884001 9.5 -0.54299998
16.865 9.559 -0.54299998
15.033 8.5799999 -0.463
14.935 8.5860004 -0.46000001
14.89 8.5909996 -0.45899999
16.881001 9.8149996 -0.54900002
14.597 8.6059999 -0.449
14.47 8.5930004 -0.44499999
14.078 8.4189997 -0.428
13.963 8.4090004 -0.42399999
13.908 8.4060001 -0.42300001
13.819 8.4119997 -0.41999999
13.714 8.4069996 -0.41600001
13.637 8.4180002 -0.414
13.554 8.4259996 -0.41100001
13.46 8.4259996 -0.40799999
13.39 8.441 -0.40599999
13.304 8.4160004 -0.403
13.223 8.4230003 -0.40000001
13.207 8.4709997 -0.40099999
13.222 8.5389996 -0.403
13.199 8.5830002 -0.403
13.212 8.651 -0.405
13.211 8.71 -0.40599999
13.219 8.7449999 -0.40700001
13.353 8.8940001 -0.41499999
13.732 9.2110004 -0.433
13.884 9.3760004 -0.442
13.897 9.4490004 -0.44400001
13.884 9.5039997 -0.44499999
13.89 9.5719995 -0.44600001
13.888 9.6029997 -0.447
13.881 9.6630001 -0.44800001
13.872 9.7209997 -0.449
13.867 9.783 -0.44999999
13.895 9.8690004 -0.45300001
13.869 9.9160004 -0.45300001
13.886 9.9940004 -0.456
13.901 10.038 -0.45699999
13.905 10.108 -0.45899999
13.898 10.169 -0.46000001
13.906 10.243 -0.46200001
13.888 10.297 -0.463
13.91 10.381 -0.465
13.888 10.433 -0.46599999
13.912 10.485 -0.46799999
13.904 10.548 -0.46900001
13.911 10.622 -0.47099999
13.892 10.677 -0.47099999
13.907 10.759 -0.47400001
13.887 10.813 -0.47499999
13.897 10.891 -0.477
13.894 10.924 -0.477
13.908 11.007 -0.47999999
13.889 11.063 -0.48100001
10.532 8.4890003 -0.31799999
10.479 8.5010004 -0.31600001
10.403 8.493 -0.31400001
10.369 8.493 -0.31299999
10.298 8.4890003 -0.31099999
10.244 8.4980001 -0.30899999
10.172 8.493 -0.30700001
10.118 8.5019999 -0.30500001
10.069 8.5139999 -0.30399999
10.004 8.5129995 -0.30199999
9.9650002 8.507 -0.301
9.8999996 8.5050001 -0.29899999
9.8450003 8.5120001 -0.29800001
9.7849998 8.5139999 -0.296
9.7229996 8.5139999 -0.294
9.6400003 8.4940004 -0.29100001
9.5799999 8.4949999 -0.28999999
9.5939999 8.5340004 -0.29100001
9.6079998 8.6020002 -0.29300001
9.6230001 8.6689997 -0.29499999
9.4820004 8.5959997 -0.289
9.5889997 8.7480001 -0.296
9.6129999 8.8260002 -0.29899999
9.6110001 8.8809996 -0.30000001
9.625 8.9219999 -0.30199999
9.6169996 8.9709997 -0.303
9.8479996 9.2449999 -0.317
9.8450003 9.3009996 -0.31799999
9.8590002 9.3730001 -0.31999999
9.8409996 9.415 -0.32100001
9.8500004 9.4829998 -0.32300001
9.8479996 9.5109997 -0.324
10.292 10.004 -0.34900001
10.165 9.9429998 -0.34400001
10.192 10.032 -0.347
10.135 10.039 -0.34599999
10.072 10.039 -0.34400001
40.703999 0.061000001 -1.607
40.752998 0.189 -1.609
40.785 0.317 -1.61
40.814999 0.44600001 -1.612
40.868 0.57499999 -1.614
41.005001 0.70499998 -1.62
41.061001 0.83499998 -1.623
41.209 0.903 -1.63
41.388 1.0369999 -1.638
41.463001 1.169 -1.641
41.544998 1.302 -1.645
41.616001 1.4349999 -1.648
41.662998 1.568 -1.651
41.724998 1.636 -1.654
41.833 1.771 -1.659
41.946999 1.908 -1.664
42.089001 2.0469999 -1.671
42.216 2.1860001 -1.677
42.369999 2.3269999 -1.684
42.518002 2.47 -1.691
42.610001 2.5420001 -1.6950001
42.737999 2.684 -1.701
42.860001 2.8269999 -1.707
43.005001 2.9719999 -1.714
43.259998 3.1259999 -1.726
43.623001 3.29 -1.742
44.104 3.4660001 -1.7640001
44.265999 3.5480001 -1.772
44.389999 3.698 -1.778
44.458 3.845 -1.781
44.606998 3.9990001 -1.788
44.785 4.1560001 -1.7970001
45.02 4.3210001 -1.808
45.424 4.5029998 -1.827
45.769001 4.6100001 -1.842
46.119999 4.7909999 -1.859
45.686001 4.8920002 -1.84
45.263 4.9910002 -1.822
45.224998 5.1300001 -1.821
45.236 5.276 -1.822
45.266998 5.4229999 -1.824
45.293999 5.5710001 -1.826
45.327999 5.6469998 -1.8279999
33.042 4.2290001 -1.278
14.754 2.0439999 -0.45899999
14.716 2.086 -0.45699999
14.44 2.0710001 -0.44499999
14.226 2.086 -0.43599999
13.948 2.0910001 -0.42399999
13.714 2.0999999 -0.414
13.317 2.0829999 -0.396
13.277 2.119 -0.39399999
12.996 2.1170001 -0.382
11.908 1.961 -0.333
11.708 1.967 -0.324
11.696 2.0020001 -0.324
11.96 2.086 -0.336
11.284 2.006 -0.30599999
11.909 2.154 -0.33500001
12.148 2.2360001 -0.34599999
11.061 2.056 -0.29699999
11.525 2.2920001 -0.31900001
11.545 2.3329999 -0.31999999
11.581 2.378 -0.322
11.581 2.3970001 -0.322
11.585 2.4360001 -0.32300001
11.595 2.5139999 -0.324
11.601 2.5539999 -0.32499999
11.6 2.592 -0.32499999
11.604 2.631 -0.32600001
11.617 2.6530001 -0.32600001
11.622 2.6930001 -0.32699999
11.645 2.7360001 -0.32800001
11.901 2.835 -0.34099999
11.904 2.8759999 -0.34099999
11.937 2.9230001 -0.34299999
11.864 2.9449999 -0.34
12.061 3.0139999 -0.34900001
10.976 2.7820001 -0.30000001
11.031 2.832 -0.303
11.765 3.0580001 -0.33700001
11.867 3.125 -0.34200001
11.877 3.1670001 -0.34299999
11.875 3.2060001 -0.34299999
11.885 3.2290001 -0.34400001
11.777 3.24 -0.34
11.883 3.349 -0.34599999
11.89 3.391 -0.34599999
11.885 3.4300001 -0.347
11.887 3.471 -0.347
11.903 3.4960001 -0.34799999
11.919 3.5420001 -0.34900001
11.9 3.5769999 -0.34900001
11.904 3.619 -0.34999999
11.932 3.7090001 -0.352
11.873 3.7320001 -0.34999999
11.823 3.737 -0.34799999
11.937 3.855 -0.354
11.736 3.8310001 -0.34599999
11.764 3.881 -0.347
24.389 8.1870003 -0.94099998
10.932 3.704 -0.31
10.888 3.7279999 -0.308
10.878 3.7620001 -0.308
24.045 8.4519997 -0.93000001
23.468 8.3330002 -0.90399998
23.412001 8.3959999 -0.903
23.363001 8.4200001 -0.90100002
23.275999 8.4709997 -0.898
23.223 8.5349998 -0.89700001
23.181 8.6020002 -0.89600003
23.208 8.6949997 -0.89899999
23.155001 8.7580004 -0.89700001
22.889999 8.7410002 -0.88599998
21.385 8.2060003 -0.815
21.271 8.2399998 -0.81099999
21.093 8.2469997 -0.80400002
20.909 8.2510004 -0.796
20.743 8.2609997 -0.78899997
20.565001 8.2659998 -0.78200001
20.513 8.2819996 -0.77999997
20.539 8.368 -0.78299999
20.542 8.4440002 -0.78399998
20.534 8.5159998 -0.78500003
20.631001 8.632 -0.79100001
24.370001 10.282 -0.97299999
23.25 9.8970003 -0.92000002
23.135 9.934 -0.91600001
23.047001 9.9390001 -0.91299999
20.573999 8.9530001 -0.79400003
20.544001 9.0159998 -0.79400003
20.542999 9.0930004 -0.796
20.551001 9.1739998 -0.79699999
20.415001 9.1899996 -0.792
20.34 9.2340002 -0.79000002
20.346001 9.2749996 -0.79100001
20.353001 9.3549995 -0.79299998
20.337999 9.4259996 -0.79299998
17.778 8.3109999 -0.66900003
17.649 8.3179998 -0.66399997
17.521 8.3260002 -0.65899998
17.389 8.3299999 -0.65399998
17.285999 8.3140001 -0.64999998
17.16 8.3210001 -0.64499998
17.035 8.3260002 -0.63999999
16.914 8.3330002 -0.63499999
16.874001 8.3789997 -0.634
16.860001 8.4379997 -0.63499999
16.834999 8.4919996 -0.63499999
16.813 8.5139999 -0.63499999
16.763 8.5550003 -0.63300002
16.624001 8.5500002 -0.62800002
16.495001 8.5500002 -0.62300003
16.386999 8.5600004 -0.61900002
16.266001 8.5620003 -0.61400002
16.118 8.5170002 -0.60699999
16.01 8.5240002 -0.60299999
15.952 8.5570002 -0.602
16.843 9.1020002 -0.648
16.846001 9.1719999 -0.64999998
16.844999 9.2399998 -0.65100002
16.844 9.309 -0.65200001
16.756001 9.2939997 -0.64899999
14.972 8.493 -0.56199998
14.962 8.5500002 -0.56300002
14.861 8.5539999 -0.55900002
16.853001 9.7679996 -0.66299999
16.863001 9.809 -0.66399997
16.85 9.8719997 -0.66500002
16.85 9.9429998 -0.667
14.073 8.3690004 -0.52499998
13.977 8.3719997 -0.52100003
13.909 8.3909998 -0.51899999
13.819 8.3959999 -0.51599997
13.731 8.3719997 -0.51200002
13.659 8.3870001 -0.509
13.571 8.3920002 -0.50599998
13.478 8.3940001 -0.50300002
13.391 8.3979998 -0.49900001
13.283 8.3889999 -0.495
13.221 8.408 -0.493
13.161 8.3990002 -0.491
13.195 8.4790001 -0.49399999
13.184 8.5299997 -0.495
13.199 8.599 -0.49700001
13.182 8.6470003 -0.498
13.188 8.71 -0.49900001
13.284 8.8330002 -0.50599998
13.323 8.8889999 -0.509
13.864 9.3120003 -0.53899997
13.876 9.3839998 -0.54100001
13.867 9.441 -0.54299998
13.868 9.5059996 -0.54400003
13.86 9.5640001 -0.54500002
13.861 9.6289997 -0.54699999
13.866 9.665 -0.54799998
13.878 9.7379999 -0.55000001
13.865 9.7939997 -0.551
13.873 9.8649998 -0.55400002
13.871 9.9300003 -0.55500001
13.868 9.993 -0.55699998
13.877 10.066 -0.55900002
13.884 10.104 -0.56
13.895 10.179 -0.56300002
13.879 10.235 -0.56300002
13.891 10.31 -0.56599998
13.879 10.37 -0.56699997
13.889 10.446 -0.56900001
13.871 10.5 -0.56999999
13.891 10.549 -0.57200003
13.882 10.611 -0.574
13.886 10.684 -0.57599998
13.878 10.747 -0.57700002
13.888 10.825 -0.57999998
13.876 10.886 -0.58099997
13.878 10.958 -0.583
13.947 11.048 -0.588
10.521 8.4499998 -0.39700001
10.465 8.4589996 -0.39500001
10.405 8.4650002 -0.39300001
10.338 8.4639997 -0.391
10.286 8.4770002 -0.389
10.222 8.4510002 -0.38600001
10.168 8.46 -0.38499999
10.113 8.4689999 -0.38299999
10.053 8.4720001 -0.38100001
9.9870005 8.4700003 -0.37900001
9.9309998 8.4770002 -0.377
9.8710003 8.4799995 -0.375
9.8269997 8.4689999 -0.373
9.7720003 8.4750004 -0.37200001
9.7110004 8.4759998 -0.37
9.6339998 8.4630003 -0.36700001
9.5749998 8.4639997 -0.36500001
9.5509996 8.4969997 -0.36500001
9.5710001 8.5679998 -0.368
9.6049995 8.625 -0.37099999
9.5939999 8.6700001 -0.37200001
9.401 8.5500002 -0.36199999
9.5249996 8.717 -0.37099999
9.5900002 8.8319998 -0.37599999
9.5719995 8.8710003 -0.377
9.5909996 8.9449997 -0.38
9.8369999 9.2019997 -0.396
9.8269997 9.2510004 -0.39700001
9.8290005 9.3109999 -0.39899999
9.8269997 9.368 -0.40000001
9.8409996 9.4399996 -0.403
9.8260002 9.4849997 -0.40400001
10.235 9.941 -0.43099999
10.248 9.9849997 -0.433
10.19 9.9899998 -0.43099999
10.135 10 -0.43000001
10.067 9.9949999 -0.42699999
10.016 10.007 -0.426
35.542 0.052000001 -1.581
35.526001 0.108 -1.58
35.492001 0.219 -1.5779999
35.516998 0.331 -1.58
35.576 0.44299999 -1.5829999
35.647999 0.55599999 -1.587
35.764 0.67000002 -1.592
35.819 0.78399998 -1.595
35.880001 0.84200001 -1.598
36.035 0.95899999 -1.6059999
36.202999 1.077 -1.615
36.394001 1.198 -1.625
36.573002 1.319 -1.6339999
36.623001 1.436 -1.637
36.751999 1.557 -1.643
36.867001 1.62 -1.649
36.972 1.7410001 -1.655
37.165001 1.867 -1.665
37.353001 1.994 -1.675
37.438 2.1170001 -1.679
37.477001 2.237 -1.681
37.651001 2.3659999 -1.691
37.766998 2.4330001 -1.697
37.889 2.5610001 -1.7029999
38.034 2.691 -1.711
38.199001 2.823 -1.72
38.313 2.9530001 -1.726
38.477001 3.0869999 -1.735
38.630001 3.2219999 -1.743
39.034 3.3789999 -1.7640001
39.459999 3.4790001 -1.785
39.706001 3.6259999 -1.798
39.873001 3.7679999 -1.807
40.051998 3.9119999 -1.817
40.259998 4.0599999 -1.8279999
40.477001 4.211 -1.84
40.638 4.2919998 -1.848
40.824001 4.4419999 -1.858
40.959 4.5869999 -1.8660001
41.160999 4.7399998 -1.877
41.318001 4.8899999 -1.885
41.011002 4.9840002 -1.8710001
40.737999 5.0809999 -1.858
40.716 5.1430001 -1.857
32.84 4.2480001 -1.459
14.731 2.0320001 -0.54299998
14.665 2.0699999 -0.54000002
14.182 2.0469999 -0.51599997
13.92 2.0309999 -0.50300002
13.842 2.0639999 -0.49900001
13.267 2.062 -0.47099999
13.073 2.0739999 -0.461
12.956 2.0969999 -0.456
10.68 1.758 -0.34
10.701 1.779 -0.34099999
10.661 1.807 -0.34
10.652 1.839 -0.33899999
12.012 2.1559999 -0.40900001
11.954 2.184 -0.40700001
12.132 2.256 -0.41600001
10.677 2.069 -0.34299999
10.701 2.109 -0.34400001
11.419 2.29 -0.38100001
11.42 2.3269999 -0.382
10.927 2.2609999 -0.35699999
10.844 2.2620001 -0.35299999
10.841 2.2969999 -0.35299999
10.822 2.3280001 -0.352
10.812 2.362 -0.352
10.805 2.3959999 -0.352
10.813 2.4330001 -0.35299999
10.803 2.467 -0.35299999
10.803 2.484 -0.35299999
10.801 2.52 -0.354
10.818 2.5599999 -0.35499999
11.842 2.8829999 -0.40900001
11.827 2.9189999 -0.40799999
11.847 2.9630001 -0.41
10.831 2.7249999 -0.35699999
10.869 2.7709999 -0.36000001
10.845 2.8010001 -0.359
10.827 2.8329999 -0.359
10.835 2.8710001 -0.359
10.828 2.9059999 -0.36000001
10.863 2.9519999 -0.36199999
10.893 2.9790001 -0.36399999
10.885 3.013 -0.36399999
11.851 3.3640001 -0.41499999
11.856 3.405 -0.41600001
11.859 3.4460001 -0.417
11.869 3.49 -0.41800001
11.86 3.507 -0.41800001
11.87 3.5510001 -0.419
11.87 3.592 -0.419
11.862 3.6300001 -0.41999999
12.105 3.747 -0.433
11.872 3.7149999 -0.421
11.822 3.74 -0.419
11.776 3.786 -0.41800001
11.619 3.776 -0.41
11.714 3.848 -0.41600001
10.847 3.694 -0.37200001
10.815 3.721 -0.37099999
23.941 8.4390001 -1.071
23.424 8.3389997 -1.045
23.334999 8.3900003 -1.0420001
23.277 8.4099998 -1.039
23.184999 8.4589996 -1.036
23.115 8.5159998 -1.033
23.051001 8.5749998 -1.031
22.971001 8.6280003 -1.029
22.92 8.6899996 -1.027
22.85 8.7460003 -1.025
21.34 8.243 -0.94499999
21.202 8.2279997 -0.93800002
21.040001 8.2410002 -0.93099999
20.868999 8.25 -0.92299998
20.681999 8.2510004 -0.91500002
20.490999 8.2489996 -0.90600002
20.497999 8.3269997 -0.90700001
20.507 8.4060001 -0.90899998
20.533001 8.4540005 -0.91100001
20.518999 8.5240002 -0.912
24.02 10.072 -1.104
24.007 10.155 -1.105
24.01 10.245 -1.107
24.014 10.336 -1.109
24.018 10.428 -1.1109999
20.49 8.9300003 -0.91900003
20.320999 8.9320002 -0.91100001
20.190001 8.9510002 -0.90499997
20.056 8.967 -0.89999998
19.937 8.9879999 -0.89499998
19.820999 9.0109997 -0.88999999
19.788 9.0710001 -0.88999999
19.823999 9.125 -0.89200002
17.851 8.2819996 -0.78500003
17.747 8.302 -0.77999997
17.612 8.3059998 -0.77399999
17.500999 8.3210001 -0.76999998
17.371 8.3260002 -0.764
17.259001 8.3050003 -0.75800002
17.132 8.3100004 -0.75300002
17.004999 8.3149996 -0.74699998
16.893 8.3260002 -0.74199998
16.872 8.382 -0.74299997
16.848 8.4350004 -0.74299997
16.812 8.4840002 -0.74199998
16.788 8.5050001 -0.74199998
16.924999 8.6409998 -0.75099999
16.599001 8.54 -0.73400003
16.466 8.5369997 -0.72799999
16.337999 8.5360003 -0.722
16.221001 8.54 -0.71700001
16.101 8.5410004 -0.71200001
15.998 8.5179996 -0.70700002
15.953 8.559 -0.70599997
16.841 9.1049995 -0.75800002
16.837 9.1709995 -0.759
16.833 9.2379999 -0.76099998
16.816 9.2969999 -0.76099998
16.82 9.3690004 -0.76300001
15.006 8.5109997 -0.66299999
14.938 8.5340004 -0.66000003
14.776 8.5030003 -0.653
16.833 9.7609997 -0.77399999
16.832001 9.8310003 -0.77499998
16.856001 9.8809996 -0.778
16.83 9.9370003 -0.778
14.071 8.3629999 -0.61799997
13.979 8.368 -0.61500001
13.907 8.3839998 -0.61199999
13.797 8.3769999 -0.60699999
13.726 8.3929996 -0.60399997
13.625 8.3599997 -0.59899998
13.561 8.3789997 -0.597
13.469 8.3809996 -0.59299999
13.395 8.3929996 -0.58999997
13.294 8.3879995 -0.58600003
13.214 8.3959999 -0.583
13.152 8.4139996 -0.58099997
13.188 8.4659996 -0.583
13.166 8.5109997 -0.58399999
13.152 8.5609999 -0.58499998
13.114 8.5950003 -0.58399999
13.113 8.6540003 -0.58499998
13.286 8.8280001 -0.59799999
13.273 8.8789997 -0.59799999
13.867 9.3100004 -0.63499999
13.869 9.375 -0.63700002
13.861 9.4329996 -0.63800001
13.869 9.5019999 -0.64099997
13.85 9.5539999 -0.64099997
13.868 9.6300001 -0.64399999
13.846 9.6800003 -0.64499998
13.793 9.6750002 -0.64300001
12.907 9.1120005 -0.58999997
12.87 9.1470003 -0.58899999
12.83 9.1789999 -0.58899999
12.793 9.2130003 -0.588
12.757 9.2489996 -0.588
12.702 9.2700005 -0.58600003
12.673 9.2790003 -0.58499998
12.618 9.3000002 -0.58399999
13.801 10.241 -0.65899998
13.799 10.307 -0.66100001
13.801 10.377 -0.66399997
13.796 10.441 -0.66500002
13.798 10.511 -0.66799998
13.819 10.562 -0.67000002
13.802 10.617 -0.671
13.808 10.691 -0.67299998
13.81 10.763 -0.676
13.805 10.828 -0.67799997
13.811 10.904 -0.68000001
13.829 10.988 -0.68300003
10.52 8.4320002 -0.47400001
10.464 8.441 -0.472
10.394 8.4390001 -0.46900001
10.335 8.4449997 -0.46700001
10.279 8.4530001 -0.465
10.211 8.4510002 -0.46200001
10.174 8.448 -0.461
10.111 8.4490004 -0.458
10.048 8.4499998 -0.456
9.9820004 8.448 -0.45300001
9.9399996 8.4659996 -0.45199999
9.8690004 8.4589996 -0.449
9.8109999 8.4630003 -0.447
9.7709999 8.4549999 -0.44499999
9.7110004 8.4560003 -0.44299999
9.651 8.4580002 -0.44100001
9.5749998 8.4440002 -0.43799999
9.5340004 8.4610004 -0.43700001
9.5679998 8.5459995 -0.44100001
9.5690002 8.6009998 -0.44299999
9.5830002 8.6400003 -0.44499999
9.5830002 8.6960001 -0.44600001
9.599 8.7650003 -0.449
9.5769997 8.8009996 -0.44999999
9.5869999 8.8660002 -0.45199999
9.5860004 8.9209995 -0.454
9.8170004 9.165 -0.47099999
9.8199997 9.2259998 -0.47299999
9.8310003 9.2959995 -0.47600001
9.8120003 9.3360004 -0.477
9.823 9.4060001 -0.479
9.8249998 9.467 -0.48199999
10.226 9.9169998 -0.51200002
10.232 9.9860001 -0.514
10.204 9.9890003 -0.514
10.134 9.9829998 -0.51099998
10.066 9.9779997 -0.50800002
10.012 9.9870005 -0.50700003
31.785 0.050999999 -1.594
31.812 0.15099999 -1.596
31.846001 0.20100001 -1.598
31.924999 0.30199999 -1.602
31.98 0.403 -1.605
32.004002 0.50400001 -1.607
32.077 0.60600001 -1.6109999
32.099998 0.70700002 -1.612
32.234001 0.81099999 -1.62
32.321999 0.86400002 -1.625
32.367001 0.96700001 -1.628
32.425999 1.071 -1.631
32.515999 1.176 -1.637
32.630001 1.2819999 -1.643
32.625999 1.385 -1.643
32.752998 1.493 -1.651
32.838001 1.601 -1.656
32.938999 1.6569999 -1.6619999
33.112999 1.77 -1.6720001
33.237 1.881 -1.679
33.300999 1.99 -1.683
33.439999 2.1040001 -1.691
33.536999 2.2149999 -1.697
33.626999 2.2739999 -1.7029999
33.713001 2.3870001 -1.7079999
33.786999 2.4979999 -1.7130001
33.889 2.6129999 -1.719
34.037998 2.7320001 -1.728
34.174 2.8510001 -1.7359999
34.341999 2.973 -1.7460001
34.528 3.0439999 -1.757
34.701 3.1689999 -1.767
34.911999 3.299 -1.78
35.102001 3.428 -1.791
35.381001 3.5669999 -1.808
35.598 3.7019999 -1.821
35.706001 3.826 -1.827
35.831001 3.8970001 -1.835
35.969002 4.026 -1.8430001
36.140999 4.1599998 -1.854
36.316002 4.296 -1.865
36.465 4.4289999 -1.874
36.584999 4.5609999 -1.882
14.707 2.013 -0.63599998
14.669 2.0550001 -0.63499999
13.924 2.0409999 -0.59299999
13.827 2.072 -0.588
13.458 2.039 -0.56699997
13.241 2.049 -0.55500001
12.741 2.0139999 -0.52600002
10.739 1.7359999 -0.412
10.694 1.763 -0.41
10.68 1.795 -0.40900001
10.675 1.829 -0.40900001
10.695 1.85 -0.41100001
11.987 2.148 -0.486
11.735 2.141 -0.472
10.647 2.0139999 -0.41
10.603 2.1270001 -0.40900001
10.586 2.158 -0.40799999
10.572 2.1900001 -0.40799999
10.588 2.2279999 -0.40900001
10.607 2.267 -0.41
10.705 2.3050001 -0.41600001
10.709 2.3410001 -0.417
10.717 2.378 -0.41800001
10.729 2.4159999 -0.419
10.716 2.448 -0.419
10.722 2.4849999 -0.419
10.722 2.5209999 -0.41999999
10.723 2.539 -0.41999999
10.739 2.5780001 -0.42199999
10.696 2.6029999 -0.41999999
10.724 2.6459999 -0.42199999
10.704 2.677 -0.421
10.719 2.7160001 -0.42199999
10.701 2.747 -0.42199999
10.712 2.7679999 -0.42300001
10.701 2.8010001 -0.42300001
10.712 2.8399999 -0.42399999
10.709 2.875 -0.42399999
10.713 2.9130001 -0.42500001
10.715 2.9489999 -0.426
10.702 2.9820001 -0.42500001
10.732 3.0079999 -0.42699999
10.742 3.0469999 -0.428
10.738 3.0829999 -0.42899999
10.745 3.1210001 -0.43000001
10.889 3.2 -0.43900001
11.088 3.296 -0.45100001
11.789 3.543 -0.493
11.847 3.5799999 -0.49700001
11.837 3.618 -0.49700001
11.841 3.6600001 -0.498
11.854 3.7049999 -0.49900001
11.82 3.7349999 -0.498
11.754 3.7750001 -0.495
11.712 3.802 -0.493
11.704 3.8399999 -0.49399999
10.698 3.625 -0.43599999
10.7 3.6630001 -0.43700001
10.751 3.7179999 -0.44
10.733 3.7309999 -0.44
18.125 6.4089999 -0.884
23.388 8.3439999 -1.201
23.465 8.4549999 -1.207
23.51 8.5539999 -1.212
23.582001 8.665 -1.2180001
23.664 8.7370005 -1.223
23.679001 8.8269997 -1.226
22.863001 8.6879997 -1.1799999
22.825001 8.7550001 -1.179
21.271999 8.2379999 -1.087
21.084 8.2419996 -1.077
20.934999 8.2220001 -1.069
20.76 8.2290001 -1.0599999
20.586 8.2349997 -1.051
20.473 8.2639999 -1.045
20.495001 8.3479996 -1.048
20.507999 8.4280005 -1.051
20.392 8.4560003 -1.045
20.280001 8.4469995 -1.039
20.254999 8.5109997 -1.039
20.232 8.5769997 -1.04
20.183001 8.6309996 -1.038
20.148001 8.691 -1.038
20.117001 8.7530003 -1.038
20.195 8.8240004 -1.043
20.267 8.9320002 -1.049
20.106001 8.9359999 -1.041
19.931999 8.934 -1.0319999
19.796 8.948 -1.025
19.774 9.0129995 -1.026
19.774 9.0880003 -1.028
19.784 9.1300001 -1.029
17.795 8.283 -0.90700001
17.657 8.2869997 -0.89999998
17.52 8.29 -0.89300001
17.402 8.3009996 -0.88700002
17.278999 8.309 -0.88099998
17.155001 8.3170004 -0.875
17.049 8.2980003 -0.86900002
16.921 8.302 -0.86299998
16.85 8.3330002 -0.86000001
16.847 8.3970003 -0.861
16.827 8.4540005 -0.86199999
16.790001 8.5010004 -0.861
16.950001 8.6490002 -0.87300003
16.622 8.5150003 -0.85299999
16.513 8.5249996 -0.84799999
16.391001 8.5270004 -0.84200001
16.268 8.5290003 -0.83600003
16.129999 8.5209999 -0.829
16.000999 8.5179996 -0.82200003
15.891 8.5240002 -0.81699997
16.830999 9.0600004 -0.87800002
16.84 9.1330004 -0.88
16.832001 9.1969995 -0.88200003
16.837999 9.2690001 -0.884
16.83 9.3339996 -0.88499999
16.823 9.3990002 -0.88700002
16.827 9.4709997 -0.889
16.823999 9.5039997 -0.88999999
14.956 8.5139999 -0.76999998
14.827 8.5030003 -0.764
16.846001 9.7270002 -0.89700001
16.827 9.7869997 -0.898
14.607 8.5609999 -0.75400001
14.495 8.5570002 -0.74900001
14.08 8.342 -0.722
13.986 8.3459997 -0.71799999
13.902 8.3549995 -0.71399999
13.812 8.3610001 -0.70999998
13.728 8.3690004 -0.70599997
13.63 8.368 -0.70099998
13.563 8.3859997 -0.699
13.456 8.349 -0.69300002
13.394 8.3699999 -0.69
13.29 8.3629999 -0.685
13.222 8.3780003 -0.68199998
13.125 8.3739996 -0.67699999
13.159 8.4540005 -0.68099999
13.152 8.5089998 -0.68300003
13.094 8.5 -0.68000001
12.975 8.4809999 -0.67400002
12.843 8.4530001 -0.66600001
13.146 8.7110004 -0.68900001
13.318 8.8850002 -0.70200002
13.348 8.9659996 -0.70599997
13.762 9.3050003 -0.736
13.781 9.349 -0.73900002
13.784 9.415 -0.741
13.793 9.4840002 -0.74400002
13.779 9.5389996 -0.745
13.797 9.6149998 -0.74800003
13.773 9.6630001 -0.74800003
12.853 9.0799999 -0.68699998
12.837 9.099 -0.68699998
12.779 9.118 -0.685
12.745 9.1549997 -0.68400002
12.697 9.1809998 -0.68300003
12.652 9.2089996 -0.68199998
12.612 9.2410002 -0.68099999
12.57 9.2709999 -0.68000001
13.799 10.208 -0.76800001
13.804 10.278 -0.76999998
13.807 10.348 -0.773
13.798 10.409 -0.77399999
13.8 10.479 -0.77700001
13.802 10.549 -0.77899998
13.801 10.617 -0.78200001
13.814 10.661 -0.78399998
13.82 10.735 -0.787
13.81 10.797 -0.78799999
13.813 10.87 -0.79100001
13.831 10.954 -0.79500002
10.493 8.427 -0.55800003
10.457 8.4239998 -0.55599999
10.387 8.4219999 -0.55299997
10.322 8.4230003 -0.55000001
10.269 8.434 -0.54799998
10.201 8.4320002 -0.54500002
10.142 8.4370003 -0.54299998
10.078 8.4379997 -0.54000002
10.033 8.427 -0.53799999
9.9729996 8.4300003 -0.53500003
9.9169998 8.4370003 -0.53299999
9.8590002 8.441 -0.53100002
9.7939997 8.4399996 -0.528
9.7440004 8.4490004 -0.52600002
9.6960001 8.4350004 -0.52399999
9.6379995 8.4370003 -0.52100003
9.5629997 8.4259996 -0.51800001
9.5290003 8.4490004 -0.51700002
9.5620003 8.5319996 -0.52200001
9.566 8.5900002 -0.52399999
9.5620003 8.6400003 -0.52600002
9.566 8.698 -0.528
9.5790005 8.7370005 -0.52999997
9.5780001 8.7910004 -0.53200001
9.5909996 8.8590002 -0.53500003
9.5839996 8.908 -0.537
9.8000002 9.1660004 -0.55599999
9.8000002 9.224 -0.55800003
9.8030005 9.2849998 -0.56099999
9.8100004 9.3210001 -0.56199998
9.3999996 8.9890003 -0.53299999
9.3760004 9.0229998 -0.53299999
9.3549995 9.059 -0.53299999
9.3280001 9.0900002 -0.53399998
9.3009996 9.1210003 -0.53399998
9.2889996 9.1669998 -0.53500003
10.066 9.9610004 -0.59799999
10.01 9.9680004 -0.59600002
29.174999 0.037999999 -1.602
29.23 0.13 -1.605
29.214001 0.222 -1.604
29.240999 0.31400001 -1.6059999
29.268 0.40599999 -1.608
29.292 0.498 -1.61
29.309 0.54500002 -1.6109999
29.372999 0.63800001 -1.615
29.424999 0.73199999 -1.618
29.469 0.82599998 -1.6210001
29.538 0.921 -1.625
29.594999 1.016 -1.6289999
29.705 1.066 -1.636
29.787001 1.163 -1.641
29.847 1.2589999 -1.645
29.905001 1.3559999 -1.649
29.966 1.4529999 -1.653
30.066999 1.553 -1.66
30.108 1.65 -1.6619999
30.233999 1.752 -1.671
30.306999 1.804 -1.675
30.347 1.902 -1.678
30.391001 2.0009999 -1.681
30.454 2.1010001 -1.686
30.499001 2.201 -1.689
30.538 2.3 -1.692
30.669001 2.358 -1.7
30.705 2.4579999 -1.7029999
30.789 2.562 -1.7079999
30.902 2.6700001 -1.716
30.979 2.7739999 -1.721
31.084999 2.8829999 -1.728
31.209 2.993 -1.737
31.274 3.049 -1.7410001
31.392 3.1600001 -1.749
31.462999 3.267 -1.7539999
31.724001 3.395 -1.771
31.995001 3.526 -1.788
32.264 3.6589999 -1.806
32.381001 3.7750001 -1.814
32.409 3.882 -1.816
32.481998 3.9419999 -1.821
32.457001 4.0430002 -1.821
32.466 4.1479998 -1.822
32.57 4.2649999 -1.829
14.734 2.0090001 -0.71700001
14.697 2.0280001 -0.71499997
14.635 2.066 -0.71200001
13.961 2.059 -0.67000002
13.717 2.0669999 -0.65499997
13.369 2.0999999 -0.63499999
12.887 2.0439999 -0.60500002
12.754 2.063 -0.597
10.708 1.763 -0.46900001
10.702 1.796 -0.46900001
10.704 1.831 -0.46900001
10.681 1.862 -0.46799999
11.919 2.1389999 -0.546
12.118 2.214 -0.55900002
10.63 2.0079999 -0.46700001
10.563 2.099 -0.46399999
10.55 2.1129999 -0.463
10.534 2.1440001 -0.46200001
10.515 2.175 -0.46200001
10.509 2.2079999 -0.46200001
10.48 2.237 -0.46000001
10.516 2.279 -0.463
10.503 2.3110001 -0.463
10.488 2.342 -0.46200001
10.507 2.3640001 -0.46399999
10.484 2.3929999 -0.463
10.506 2.4330001 -0.46399999
10.465 2.4579999 -0.46200001
10.44 2.487 -0.461
10.446 2.523 -0.46200001
10.428 2.536 -0.461
10.416 2.5669999 -0.461
10.408 2.5999999 -0.461
10.41 2.635 -0.46200001
10.421 2.6730001 -0.463
10.437 2.7119999 -0.46399999
10.406 2.7390001 -0.463
10.395 2.7539999 -0.463
10.473 2.8099999 -0.46799999
10.524 2.859 -0.472
10.529 2.8959999 -0.47299999
10.554 2.9389999 -0.47499999
10.585 2.983 -0.47799999
10.583 3.0190001 -0.47799999
10.586 3.0380001 -0.479
10.607 3.0799999 -0.48100001
10.611 3.1170001 -0.48199999
10.594 3.148 -0.48100001
10.606 3.188 -0.48300001
10.637 3.234 -0.48500001
10.632 3.2690001 -0.48500001
10.65 3.293 -0.48699999
10.674 3.3369999 -0.48899999
10.684 3.3770001 -0.491
10.73 3.4289999 -0.49399999
10.75 3.473 -0.49599999
10.783 3.5209999 -0.49900001
10.8 3.5639999 -0.50099999
10.764 3.5710001 -0.49900001
10.772 3.6110001 -0.5
10.787 3.654 -0.50199997
10.815 3.7019999 -0.50400001
10.697 3.6989999 -0.498
10.718 3.744 -0.5
10.682 3.7690001 -0.498
22.868999 8.2220001 -1.301
22.643999 8.2209997 -1.288
22.51 8.2519999 -1.28
10.779 3.9760001 -0.50800002
10.761 4.007 -0.50800002
10.757 4.0450001 -0.50800002
21.365999 8.2530003 -1.214
21.216999 8.2720003 -1.206
21.037001 8.2779999 -1.196
20.855 8.2819996 -1.1849999
20.690001 8.2919998 -1.176
20.531 8.2650003 -1.166
20.555 8.3500004 -1.17
20.542999 8.4209995 -1.171
20.535 8.493 -1.1720001
20.292999 8.467 -1.158
20.228001 8.5139999 -1.155
20.195 8.5760002 -1.155
20.176001 8.6049995 -1.154
20.143999 8.6660004 -1.154
20.111 8.7270002 -1.153
20.091999 8.7939997 -1.154
20.357 8.9860001 -1.174
20.215 9 -1.166
20.042999 8.9980001 -1.156
19.879999 8.9619999 -1.146
19.809999 9.0059996 -1.143
19.802999 9.0780001 -1.145
19.799999 9.1520004 -1.147
17.865 8.323 -1.017
17.768999 8.3459997 -1.012
17.629 8.3479996 -1.0039999
17.518 8.3290005 -0.99699998
17.386 8.3330002 -0.99000001
17.264 8.3409996 -0.98299998
17.152 8.3540001 -0.977
17.018 8.3540001 -0.97000003
16.92 8.3719997 -0.96499997
16.898001 8.427 -0.96499997
16.886 8.4549999 -0.96600002
16.837999 8.4969997 -0.96399999
16.809999 8.5489998 -0.96399999
16.653 8.5349998 -0.95499998
16.594 8.5710001 -0.95300001
16.489 8.5819998 -0.94700003
16.372999 8.5539999 -0.94
16.26 8.5600004 -0.93400002
16.110001 8.5450001 -0.92500001
16 8.552 -0.92000002
16.356001 8.809 -0.94700003
16.815001 9.125 -0.98100001
16.787001 9.1780005 -0.98100001
16.847 9.2799997 -0.98699999
16.843 9.3120003 -0.98799998
16.858999 9.3909998 -0.991
16.862 9.4619999 -0.99299997
16.85 9.5249996 -0.995
16.834999 9.5869999 -0.99599999
14.949 8.5710001 -0.86299998
15.127 8.7370005 -0.87800002
16.860001 9.7770004 -1.003
16.872 9.8549995 -1.006
14.621 8.5979996 -0.847
14.521 8.6000004 -0.84100002
14.094 8.4069996 -0.81300002
13.993 8.4060001 -0.80699998
13.888 8.4020004 -0.801
13.815 8.3870001 -0.79699999
13.756 8.4110003 -0.79500002
13.653 8.4069996 -0.78899997
13.589 8.427 -0.78600001
13.477 8.415 -0.77999997
13.411 8.4329996 -0.77700001
13.299 8.4200001 -0.77100003
13.228 8.4049997 -0.76700002
13.165 8.4230003 -0.764
13.2 8.5039997 -0.76899999
13.179 8.5489998 -0.76899999
13.173 8.6040001 -0.77100003
13.138 8.6400003 -0.76999998
13.078 8.6300001 -0.76700002
13.31 8.8439999 -0.78600001
13.308 8.9029999 -0.78799999
13.234 8.9139996 -0.78399998
13.798 9.3579998 -0.829
13.799 9.4219999 -0.83099997
13.79 9.4799995 -0.833
13.82 9.5319996 -0.83600003
13.813 9.6569996 -0.83999997
13.79 9.7049999 -0.83999997
12.848 9.1000004 -0.77100003
12.811 9.1350002 -0.77100003
12.756 9.1569996 -0.76899999
12.729 9.1669998 -0.76800001
12.687 9.198 -0.76700002
12.649 9.2299995 -0.76599997
12.607 9.2609997 -0.76499999
12.555 9.2840004 -0.76300001
13.804 10.277 -0.86199999
13.8 10.342 -0.86400002
13.816 10.388 -0.86699998
13.824 10.463 -0.87
13.822 10.529 -0.87199998
13.815 10.593 -0.87400001
13.815 10.662 -0.87699997
13.823 10.738 -0.88
13.822 10.807 -0.88300002
13.833 10.851 -0.88499999
13.84 10.926 -0.88800001
13.835 10.993 -0.88999999
10.552 8.4860001 -0.63499999
10.477 8.4799995 -0.63099998
10.41 8.4799995 -0.62800002
10.371 8.4750004 -0.62599999
10.31 8.4790001 -0.62300003
10.236 8.4720001 -0.61900002
10.186 8.4849997 -0.61699998
10.131 8.4919996 -0.61500001
10.07 8.4960003 -0.61199999
10.009 8.4980001 -0.61000001
9.9630003 8.4860001 -0.60699999
9.9020004 8.4870005 -0.60399997
9.8360004 8.4840002 -0.60100001
9.776 8.4860001 -0.59799999
9.7370005 8.507 -0.597
9.6610003 8.4940004 -0.59299999
9.5939999 8.4879999 -0.58999997
9.559 8.4829998 -0.588
9.5959997 8.5710001 -0.59299999
9.5979996 8.6269999 -0.59600002
9.6079998 8.691 -0.59899998
9.6029997 8.7410002 -0.60100001
9.6029997 8.7969999 -0.60299999
9.6049995 8.8540001 -0.60500002
9.6219997 8.8979998 -0.60799998
9.6040001 8.9379997 -0.60900003
9.8330002 9.21 -0.63099998
9.8330002 9.2679996 -0.63300002
9.8430004 9.3360004 -0.63700002
9.8459997 9.3970003 -0.639
9.6330004 9.2519999 -0.62400001
9.375 9.0319996 -0.60299999
9.3409996 9.0550003 -0.602
9.3190002 9.092 -0.60299999
9.3050003 9.1350002 -0.60399997
9.2639999 9.151 -0.60299999
9.2360001 9.1820002 -0.60299999
26.417999 0.046999998 -1.6160001
26.393999 0.13 -1.614
26.417 0.213 -1.6160001
26.437 0.296 -1.617
26.452999 0.37900001 -1.618
26.49 0.463 -1.6210001
26.542 0.54699999 -1.624
26.577 0.58999997 -1.627
26.559 0.67299998 -1.626
26.632999 0.759 -1.631
26.666 0.84299999 -1.6339999
26.702999 0.92799997 -1.636
26.718 1.013 -1.637
26.753 1.056 -1.64
26.775 1.141 -1.642
26.844999 1.229 -1.647
26.937 1.318 -1.653
26.988001 1.405 -1.6569999
27.065001 1.494 -1.663
27.124001 1.5829999 -1.6670001
27.120001 1.626 -1.6670001
27.111 1.711 -1.6670001
27.097 1.795 -1.666
27.129 1.883 -1.669
27.167 1.971 -1.6720001
27.256001 2.0639999 -1.679
27.311001 2.154 -1.683
27.372 2.2449999 -1.687
27.486 2.2980001 -1.696
27.606001 2.395 -1.704
27.663 2.4879999 -1.709
27.712999 2.5799999 -1.7130001
27.802 2.6760001 -1.72
27.875 2.7720001 -1.725
27.969999 2.826 -1.732
28.09 2.927 -1.7410001
28.143999 3.0220001 -1.745
28.233999 3.1210001 -1.752
28.315001 3.22 -1.7589999
28.32 3.3110001 -1.76
28.452999 3.4170001 -1.77
28.59 3.4790001 -1.779
28.775 3.5929999 -1.793
28.943001 3.7060001 -1.806
14.716 1.9910001 -0.81999999
14.658 2.03 -0.81599998
14.62 2.072 -0.81400001
13.934 2.043 -0.76700002
13.707 2.0539999 -0.75099999
13.312 2.0380001 -0.72399998
13.327 2.0840001 -0.72600001
12.836 2.049 -0.69199997
10.687 1.762 -0.54299998
10.673 1.794 -0.54299998
10.678 1.83 -0.54299998
10.67 1.863 -0.54299998
10.66 1.896 -0.54299998
10.652 1.929 -0.54299998
10.65 1.9630001 -0.54299998
10.748 2.0680001 -0.551
10.443 2.0439999 -0.52999997
10.417 2.073 -0.52899998
10.407 2.105 -0.528
10.362 2.1470001 -0.52600002
10.357 2.1800001 -0.52600002
10.383 2.2190001 -0.528
10.376 2.2520001 -0.528
10.34 2.2780001 -0.52600002
10.352 2.3150001 -0.528
10.333 2.345 -0.52700001
10.335 2.3629999 -0.52700001
10.339 2.398 -0.528
10.326 2.4289999 -0.528
10.34 2.4660001 -0.52899998
10.347 2.5020001 -0.52999997
10.31 2.5280001 -0.528
10.318 2.5639999 -0.52899998
10.318 2.5810001 -0.52999997
10.331 2.619 -0.53100002
10.322 2.651 -0.53100002
10.31 2.6830001 -0.53100002
10.335 2.724 -0.53299999
10.326 2.756 -0.53299999
10.333 2.793 -0.53399998
10.346 2.8139999 -0.53600001
10.346 2.849 -0.53600001
10.353 2.885 -0.537
10.374 2.927 -0.54000002
10.373 2.961 -0.54000002
10.352 2.9909999 -0.53899997
10.346 3.0239999 -0.54000002
10.353 3.0439999 -0.54000002
10.362 3.1530001 -0.54299998
10.385 3.1949999 -0.54500002
10.401 3.2360001 -0.54699999
10.41 3.2750001 -0.54900002
10.414 3.2939999 -0.54900002
10.417 3.3310001 -0.55000001
10.433 3.372 -0.55199999
10.43 3.4070001 -0.55299997
10.437 3.4460001 -0.55400002
10.466 3.4920001 -0.55699998
10.475 3.5320001 -0.55800003
10.489 3.5539999 -0.56
10.527 3.6040001 -0.56300002
10.515 3.6370001 -0.56300002
10.538 3.6819999 -0.56599998
10.568 3.7290001 -0.56900001
17.039 6.1469998 -1.044
10.773 3.9349999 -0.58700001
10.754 3.9660001 -0.58600003
10.734 3.997 -0.58600003
10.743 4.039 -0.588
21.614 8.2530003 -1.39
21.434999 8.224 -1.377
21.264 8.2349997 -1.367
21.094999 8.2460003 -1.3559999
20.903 8.2469997 -1.344
20.736 8.257 -1.334
20.444 8.2150002 -1.314
20.370001 8.2600002 -1.3099999
20.233 8.2419996 -1.301
20.177 8.3669996 -1.301
20.16 8.4350004 -1.301
20.143999 8.5019999 -1.302
20.097 8.5570002 -1.301
20.068001 8.6190004 -1.301
20.049 8.6490002 -1.3
19.912001 8.6639996 -1.2920001
20.695 9.0810003 -1.353
20.737 9.177 -1.358
20.657 9.2189999 -1.354
20.660999 9.2989998 -1.357
20.486 9.2980003 -1.346
20.445999 9.3190002 -1.344
20.437 9.3920002 -1.345
17.782 8.3109999 -1.148
17.643999 8.3140001 -1.14
17.518 8.323 -1.132
17.393 8.2969999 -1.124
17.281 8.3109999 -1.117
17.172001 8.3249998 -1.1109999
9.8450003 4.823 -0.55199999
9.7530003 4.816 -0.546
9.6870003 4.822 -0.542
9.6309996 4.8319998 -0.53899997
9.5530005 4.8309999 -0.53399998
9.507 4.8260002 -0.53100002
9.4519997 4.836 -0.528
9.4160004 4.855 -0.52700001
9.349 4.8579998 -0.523
9.316 4.8779998 -0.52100003
9.2670002 4.8899999 -0.51899999
9.2180004 4.901 -0.51599997
9.1789999 4.8990002 -0.514
9.1300001 4.9099998 -0.51099998
9.099 4.9299998 -0.50999999
9.0389996 4.9349999 -0.50599998
9.0010004 4.9499998 -0.505
8.9700003 4.9699998 -0.50300002
8.9280005 4.9840002 -0.50099999
8.9060001 4.9899998 -0.5
8.8690004 5.006 -0.49900001
8.8430004 5.0279999 -0.498
8.8009996 5.0409999 -0.49599999
8.7659998 5.0580001 -0.49399999
8.7069998 5.0599999 -0.491
8.7159996 5.1020002 -0.493
8.7060003 5.1139998 -0.493
8.6789999 5.1360002 -0.49200001
8.6529999 5.1570001 -0.491
8.6429996 5.1880002 -0.491
8.6079998 5.204 -0.49000001
8.5830002 5.2259998 -0.48899999
8.585 5.2449999 -0.49000001
8.5600004 5.2670002 -0.48899999
8.5559998 5.3010001 -0.49000001
8.5319996 5.3239999 -0.49000001
8.5120001 5.349 -0.49000001
8.4879999 5.3709998 -0.48899999
8.493 5.4120002 -0.491
8.4799995 5.4219999 -0.49000001
8.4540005 5.4429998 -0.49000001
8.4519997 5.4790001 -0.491
8.4329996 5.5050001 -0.491
8.4239998 5.5370002 -0.491
8.4250002 5.5749998 -0.493
8.4259996 5.6139998 -0.495
8.4799995 5.6690001 -0.5
8.4659996 5.698 -0.5
13.768 9.309 -0.94099998
13.758 9.3660002 -0.94300002
13.758 9.4289999 -0.94499999
13.763 9.4960003 -0.94800001
13.766 9.5620003 -0.95099998
13.777 9.6020002 -0.95300001
13.767 9.6590004 -0.95499998
12.8 9.0430002 -0.87599999
12.77 9.0819998 -0.87599999
12.712 9.1009998 -0.87400001
12.668 9.1300001 -0.87199998
12.615 9.1529999 -0.87
12.596 9.1689997 -0.87
12.554 9.1990004 -0.86900002
13.379 9.8660002 -0.94199997
13.379 9.9300003 -0.94400001
13.389 10.003 -0.94800001
13.386 10.067 -0.94999999
13.378 10.127 -0.95200002
13.396 10.173 -0.95499998
13.392 10.237 -0.958
13.392 10.303 -0.95999998
13.378 10.36 -0.96200001
13.789 10.746 -1.001
13.796 10.821 -1.0039999
13.719 10.831 -1.001
13.674 10.83 -0.99800003
11.444 9.1280003 -0.80500001
10.502 8.4329996 -0.72500002
10.452 8.448 -0.72299999
10.382 8.4449997 -0.71899998
10.318 8.448 -0.71499997
10.269 8.4610004 -0.713
10.214 8.4429998 -0.70999998
10.153 8.4469995 -0.70700002
10.093 8.4510002 -0.704
10.036 8.4569998 -0.70099998
9.9729996 8.4569998 -0.69800001
9.9160004 8.4630003 -0.69499999
9.8529997 8.4630003 -0.69099998
9.8179998 8.46 -0.69
9.7460003 8.4519997 -0.685
9.7089996 8.4729996 -0.68400002
9.6339998 8.4610004 -0.68000001
9.5670004 8.4560003 -0.676
9.5089998 8.4580002 -0.67400002
9.5530005 8.5509996 -0.68000001
9.5699997 8.5930004 -0.68300003
9.573 8.6499996 -0.68599999
9.5670004 8.6990004 -0.68800002
9.5950003 8.7799997 -0.69300002
9.5699997 8.8129997 -0.69300002
9.5909996 8.8879995 -0.69800001
9.5760002 8.9300003 -0.699
9.8000002 9.1669998 -0.72100002
9.8050003 9.2290001 -0.72399998
9.8190002 9.3009996 -0.72799999
9.809 9.349 -0.73000002
9.7670002 9.368 -0.72899997
8.8439999 8.5389996 -0.64399999
8.8079996 8.559 -0.64300001
9.2320004 8.9969997 -0.685
9.2150002 9.0369997 -0.68599999
9.1949997 9.0740004 -0.68699998
9.165 9.1009998 -0.68699998
8.6739998 8.6700001 -0.64200002
24.874001 0.026000001 -1.632
24.889 0.064999998 -1.633
24.900999 0.14300001 -1.6339999
24.908001 0.222 -1.6339999
24.903999 0.30000001 -1.6339999
24.938 0.37900001 -1.637
24.938999 0.45699999 -1.637
24.924 0.53500003 -1.636
24.909 0.574 -1.635
24.941 0.653 -1.637
24.951 0.73199999 -1.638
24.983999 0.81099999 -1.641
25.014999 0.89099997 -1.643
25.035999 0.97100002 -1.645
25.055 1.05 -1.647
25.054001 1.1289999 -1.647
25.106001 1.171 -1.651
25.134001 1.251 -1.653
25.195 1.334 -1.658
25.215 1.414 -1.66
25.26 1.497 -1.663
25.316999 1.58 -1.668
25.332001 1.6210001 -1.669
25.358999 1.7029999 -1.6720001
25.365 1.783 -1.6720001
25.393999 1.865 -1.675
25.413 1.947 -1.677
25.475 2.0320001 -1.682
25.544001 2.119 -1.687
25.58 2.1619999 -1.6900001
25.655001 2.25 -1.696
25.745001 2.339 -1.704
25.819 2.428 -1.71
25.893999 2.517 -1.716
25.968 2.6070001 -1.722
26.037001 2.697 -1.728
26.136 2.7479999 -1.735
26.209999 2.8399999 -1.7410001
26.32 2.9349999 -1.75
26.4 3.0280001 -1.757
26.465 3.1199999 -1.762
26.518999 3.211 -1.767
26.566 3.3010001 -1.771
26.664 3.3559999 -1.779
26.716 3.448 -1.784
14.821 1.9960001 -0.89999998
14.469 1.994 -0.875
14.622 2.063 -0.88700002
14.076 2.075 -0.847
13.773 2.052 -0.82499999
13.38 2.0350001 -0.796
13.323 2.069 -0.792
13.058 2.0699999 -0.773
12.416 2.007 -0.72500002
11.847 1.952 -0.68300003
11.291 1.95 -0.64300001
11.457 2.016 -0.65600002
10.935 1.959 -0.61699998
10.713 1.9529999 -0.60100001
10.58 2.0150001 -0.59200001
10.519 2.0369999 -0.588
10.461 2.0599999 -0.58399999
10.398 2.0810001 -0.57999998
10.391 2.1140001 -0.57999998
10.391 2.148 -0.57999998
10.375 2.1619999 -0.579
10.369 2.194 -0.579
10.358 2.2260001 -0.579
10.357 2.26 -0.57999998
10.342 2.2909999 -0.579
10.35 2.3269999 -0.57999998
10.331 2.3559999 -0.579
10.325 2.372 -0.579
10.329 2.4070001 -0.57999998
10.316 2.438 -0.57999998
10.312 2.4719999 -0.57999998
10.312 2.506 -0.57999998
10.291 2.5350001 -0.579
10.288 2.569 -0.57999998
10.28 2.5840001 -0.57999998
10.284 2.619 -0.57999998
10.266 2.6489999 -0.57999998
10.283 2.688 -0.58200002
10.278 2.721 -0.58200002
10.277 2.756 -0.58200002
10.293 2.7950001 -0.58399999
10.304 2.8150001 -0.58600003
10.305 2.8499999 -0.58600003
10.308 2.8859999 -0.58700001
10.314 2.9230001 -0.588
10.32 2.9590001 -0.58999997
10.32 2.9949999 -0.58999997
10.332 3.033 -0.59200001
10.338 3.053 -0.59299999
10.34 3.089 -0.59399998
10.34 3.1240001 -0.59399998
10.357 3.165 -0.59600002
10.354 3.2 -0.597
10.356 3.2360001 -0.59799999
10.366 3.2750001 -0.59899998
10.386 3.299 -0.60100001
10.387 3.336 -0.602
10.411 3.3789999 -0.60500002
10.417 3.418 -0.60600001
10.431 3.4590001 -0.60799998
10.437 3.497 -0.60900003
10.452 3.539 -0.61199999
10.475 3.5650001 -0.61400002
10.49 3.6070001 -0.616
10.518 3.654 -0.61900002
10.539 3.698 -0.62099999
10.551 3.74 -0.62300003
10.626 3.8039999 -0.63
16.865999 6.1139998 -1.1210001
10.853 3.944 -0.64899999
10.841 3.9779999 -0.64899999
10.875 4.0300002 -0.653
10.84 4.0549998 -0.65100002
21.756001 8.2449999 -1.513
21.625999 8.2729998 -1.505
21.43 8.276 -1.4910001
21.283001 8.257 -1.4809999
21.09 8.2580004 -1.4680001
20.914 8.2650003 -1.456
20.742001 8.2720003 -1.444
20.570999 8.2790003 -1.433
20.414 8.29 -1.4220001
20.254999 8.3000002 -1.4119999
20.101999 8.2740002 -1.4
19.943001 8.2810001 -1.39
19.790001 8.2910004 -1.38
19.629999 8.2959995 -1.369
19.474001 8.302 -1.359
19.337999 8.316 -1.35
19.202 8.2930002 -1.34
19.046 8.2969999 -1.329
18.893999 8.3009996 -1.319
18.738001 8.3030005 -1.309
18.601 8.3120003 -1.3
18.490999 8.3319998 -1.293
18.365 8.3450003 -1.285
20.256001 9.2840004 -1.441
17.900999 8.3039999 -1.253
17.808001 8.3280001 -1.247
17.681 8.3369999 -1.239
17.561001 8.3470001 -1.2309999
17.462999 8.368 -1.225
9.9840002 4.8109999 -0.61500001
9.8850002 4.7820001 -0.60799998
9.8199997 4.7880001 -0.60299999
9.7340002 4.7839999 -0.59799999
9.658 4.7839999 -0.59299999
9.6040001 4.7950001 -0.58899999
9.5229998 4.7909999 -0.58399999
9.4650002 4.8000002 -0.57999998
9.3929996 4.7820001 -0.57499999
9.3380003 4.79 -0.57200003
9.257 4.7849998 -0.56599998
9.191 4.7880001 -0.56199998
9.1260004 4.79 -0.55800003
9.0860004 4.8060002 -0.55599999
9.0030003 4.7979999 -0.55000001
8.9709997 4.7989998 -0.54799998
8.9099998 4.802 -0.54400003
8.8559999 4.809 -0.54100001
8.8310003 4.8309999 -0.54000002
8.8070002 4.8540001 -0.53899997
8.7690001 4.869 -0.537
8.7250004 4.862 -0.53399998
8.7209997 4.8959999 -0.53500003
8.6700001 4.9029999 -0.53200001
8.6210003 4.9109998 -0.52999997
8.5900002 4.9289999 -0.528
8.5539999 4.9439998 -0.52600002
8.5369997 4.9699998 -0.52600002
8.5270004 4.9829998 -0.52600002
8.5150003 5.0110002 -0.52600002
8.4849997 5.0300002 -0.52499998
8.4630003 5.053 -0.52499998
8.4490004 5.0799999 -0.52499998
8.4219999 5.0999999 -0.52399999
8.4110003 5.1300001 -0.52399999
8.3929996 5.1370001 -0.523
8.3789997 5.164 -0.52399999
8.3739996 5.198 -0.52499998
8.3579998 5.224 -0.52499998
8.3450003 5.2529998 -0.52499998
8.342 5.2870002 -0.52600002
8.3249998 5.3140001 -0.52600002
8.3249998 5.3319998 -0.52700001
8.3280001 5.3709998 -0.52899998
8.323 5.4050002 -0.52999997
8.2989998 5.427 -0.52899998
8.2989998 5.4640002 -0.53100002
8.3100004 5.5089998 -0.53299999
8.2939997 5.5359998 -0.53299999
8.3039999 5.5609999 -0.53500003
8.3140001 5.6059999 -0.537
8.2980003 5.6329999 -0.537
8.3129997 5.6820002 -0.54000002
8.3149996 5.7220001 -0.542
12.887 9.0349998 -0.958
12.856 9.0740004 -0.958
12.805 9.0979996 -0.95599997
12.759 9.1260004 -0.954
12.722 9.1599998 -0.954
12.664 9.1789999 -0.95099998
12.646 9.2270002 -0.95200002
12.701 9.2969999 -0.958
13.252 9.7670002 -1.012
13.183 9.7799997 -1.008
13.154 9.8219995 -1.008
13.086 9.8360004 -1.005
13.038 9.8640003 -1.003
12.994 9.8950005 -1.002
12.969 9.908 -1.001
12.935 9.9460001 -1.001
12.922 10.001 -1.003
12.916 10.062 -1.005
12.883 10.101 -1.005
11.657 9.2559996 -0.89499998
11.476 9.1409998 -0.88
10.581 8.4799995 -0.79799998
10.517 8.4829998 -0.79400003
10.466 8.4960003 -0.792
10.393 8.4910002 -0.787
10.337 8.5 -0.78500003
10.267 8.4960003 -0.77999997
10.246 8.5059996 -0.77999997
10.165 8.4919996 -0.77399999
10.116 8.5059996 -0.77200001
10.056 8.5089998 -0.76899999
9.9989996 8.5150003 -0.76599997
9.9329996 8.5120001 -0.76200002
9.8940001 8.533 -0.76099998
9.8249998 8.5 -0.75599998
9.7709999 8.507 -0.75300002
9.7089996 8.5059996 -0.75
9.6379995 8.4989996 -0.745
9.592 8.5120001 -0.74299997
9.6400003 8.6079998 -0.75099999
9.6190004 8.6440001 -0.75099999
9.6479998 8.698 -0.75599998
9.6529999 8.7580004 -0.759
9.6420002 8.8030005 -0.75999999
9.6520004 8.868 -0.764
9.6520004 8.9239998 -0.76700002
9.6440001 8.9729996 -0.76899999
9.8620005 9.2349997 -0.79400003
9.882 9.283 -0.79799998
9.8859997 9.3459997 -0.801
9.868 9.3879995 -0.80199999
9.6160002 9.2040005 -0.77899998
9.2969999 8.9540005 -0.75
9.2950001 9.0089998 -0.75199997
9.283 9.0539999 -0.75400001
9.2720003 9.0719995 -0.75400001
9.2349997 9.0930004 -0.75300002
9.29 9.2040005 -0.76200002
10.078 10.052 -0.847
23.027 0.035999998 -1.646
23.028 0.108 -1.647
23.035999 0.18099999 -1.647
23.066999 0.21699999 -1.65
23.069 0.28999999 -1.65
23.076 0.36199999 -1.651
23.118 0.43599999 -1.654
23.125 0.50800002 -1.655
23.105 0.58099997 -1.653
23.120001 0.61699998 -1.655
23.142 0.69099998 -1.656
23.148001 0.764 -1.6569999
23.159 0.83700001 -1.658
23.186001 0.91100001 -1.661
23.207001 0.98500001 -1.663
23.216 1.058 -1.664
23.208 1.094 -1.663
23.252001 1.169 -1.6670001
23.264 1.243 -1.668
23.292 1.318 -1.671
23.322001 1.393 -1.673
23.391001 1.471 -1.679
23.389999 1.545 -1.6799999
23.440001 1.585 -1.684
23.483999 1.6619999 -1.688
23.530001 1.74 -1.692
23.583 1.818 -1.697
23.597 1.8940001 -1.698
23.606001 1.969 -1.7
23.653999 2.0480001 -1.704
23.694 2.089 -1.707
23.739 2.168 -1.712
23.766001 2.2460001 -1.714
23.777 2.322 -1.716
23.862 2.4059999 -1.723
23.93 2.4890001 -1.729
24.004999 2.573 -1.7359999
24.096001 2.6589999 -1.744
24.120001 2.7 -1.7460001
24.187 2.7839999 -1.752
24.259001 2.8699999 -1.7589999
24.309 2.9530001 -1.7640001
24.407 3.0420001 -1.772
24.429001 3.1229999 -1.775
24.426001 3.1619999 -1.775
14.74 2.013 -0.99199998
14.755 2.062 -0.99400002
14.753 2.109 -0.99400002
14.13 2.066 -0.94499999
13.804 2.0639999 -0.91900003
13.302 2.0109999 -0.87800002
13.28 2.05 -0.87699997
13.012 2.0510001 -0.85600001
12.513 2.0139999 -0.81599998
11.827 1.943 -0.75999999
11.57 1.939 -0.74000001
11.404 1.948 -0.727
11.234 1.938 -0.713
11.067 1.9450001 -0.69999999
10.939 1.9579999 -0.69
10.457 2.0090001 -0.653
10.413 2.0179999 -0.64999998
10.34 2.0369999 -0.64399999
10.29 2.0610001 -0.64099997
10.245 2.086 -0.63800001
10.205 2.1110001 -0.63499999
10.192 2.142 -0.634
10.195 2.1760001 -0.63499999
10.194 2.1919999 -0.63499999
10.183 2.224 -0.63499999
10.186 2.2579999 -0.63599998
10.173 2.2880001 -0.63499999
10.166 2.3199999 -0.63499999
10.162 2.3529999 -0.63599998
10.157 2.3859999 -0.63599998
10.149 2.401 -0.63499999
10.151 2.4349999 -0.63599998
10.153 2.4690001 -0.63700002
10.145 2.5009999 -0.63700002
10.141 2.5339999 -0.63700002
10.141 2.5669999 -0.63800001
10.133 2.599 -0.63800001
10.136 2.6170001 -0.639
10.138 2.652 -0.639
10.141 2.6860001 -0.63999999
10.142 2.721 -0.64099997
10.141 2.7550001 -0.64200002
10.14 2.789 -0.64300001
10.141 2.823 -0.64300001
10.15 2.8429999 -0.64399999
10.147 2.8759999 -0.64499998
10.149 2.911 -0.64600003
10.155 2.948 -0.64700001
10.15 2.9809999 -0.64700001
10.162 3.0190001 -0.64899999
10.163 3.0539999 -0.64999998
10.178 3.076 -0.65200001
10.178 3.1110001 -0.653
10.181 3.1470001 -0.65399998
10.19 3.1849999 -0.65499997
10.195 3.221 -0.65700001
10.202 3.2590001 -0.65799999
10.215 3.2980001 -0.66000003
10.231 3.3210001 -0.662
10.247 3.362 -0.66399997
10.247 3.398 -0.66500002
10.248 3.4330001 -0.66600001
10.273 3.4779999 -0.66900003
10.277 3.5150001 -0.67000002
10.298 3.5580001 -0.67299998
10.338 3.5899999 -0.67699999
10.34 3.6270001 -0.67799997
10.366 3.6730001 -0.68099999
10.247 3.6670001 -0.67199999
