# .PCD v0.7 - Point Cloud Data file format
VERSION 0.7
FIELDS x y z intensity
SIZE 4 4 4 4
TYPE F F F F
COUNT 1 1 1 1
WIDTH 1435
HEIGHT 1
VIEWPOINT 0 0 0 1 0 0 0
POINTS 1435
DATA ascii
5.908 -1.171 -1.67 0.25999999
5.8889999 -1.148 -1.663 0.2
5.9120002 -1.133 -1.668 0.40000001
5.9089999 -1.114 -1.6670001 0.27000001
5.8940001 -1.101 -1.6619999 0.25
5.8829999 -1.08 -1.6569999 0.18000001
5.875 -1.059 -1.654 0.050000001
5.8889999 -1.043 -1.6569999 0.18000001
5.8940001 -1.025 -1.658 0.20999999
5.901 -1.007 -1.659 0.28999999
5.9120002 -0.99000001 -1.661 0.34
5.9000001 -0.97799999 -1.6569999 0.2
5.9000001 -0.95899999 -1.656 0.28999999
5.9060001 -0.94099998 -1.6569999 0.25
5.9229999 -0.92500001 -1.661 0.19
5.9159999 -0.90399998 -1.658 0.28
5.9260001 -0.88700002 -1.66 0.18000001
5.9299998 -0.87800002 -1.661 0.25
5.9250002 -0.85799998 -1.659 0.23
5.948 -0.84299999 -1.665 0.25
5.928 -0.82099998 -1.658 0.25
5.921 -0.801 -1.655 0.25
5.9369998 -0.78399998 -1.659 0.19
5.9320002 -0.764 -1.6569999 0.20999999
5.934 -0.74599999 -1.6569999 0.19
5.954 -0.73900002 -1.663 0.13
5.9429998 -0.71799999 -1.659 0.19
5.9460001 -0.69999999 -1.659 0.11
5.948 -0.68099999 -1.659 0.18000001
5.9439998 -0.662 -1.6569999 0.23
5.954 -0.64399999 -1.659 0.19
5.96 -0.62599999 -1.66 0.13
5.9510002 -0.61500001 -1.658 0.2
5.947 -0.59600002 -1.656 0.050000001
5.9419999 -0.57599998 -1.654 0.15000001
5.9590001 -0.55900002 -1.658 0.2
5.9699998 -0.54100001 -1.661 0.22
5.9489999 -0.52100003 -1.654 0.2
5.954 -0.50199997 -1.655 0.27000001
5.9510002 -0.493 -1.654 0.23999999
5.9520001 -0.47400001 -1.654 0.27000001
5.948 -0.45500001 -1.653 0.20999999
5.9439998 -0.43599999 -1.651 0.23
5.9380002 -0.41600001 -1.649 0.18000001
5.9499998 -0.398 -1.652 0.090000004
5.9489999 -0.389 -1.651 0.20999999
5.967 -0.37099999 -1.6569999 0.11
5.9530001 -0.352 -1.652 0.079999998
5.947 -0.333 -1.65 0.039999999
5.948 -0.31400001 -1.65 0.16
5.9489999 -0.29499999 -1.65 0.16
5.961 -0.27700001 -1.653 0.28999999
5.9559999 -0.26699999 -1.651 0.18000001
5.9569998 -0.249 -1.651 0.23
5.9530001 -0.23 -1.65 0.2
5.9619999 -0.211 -1.653 0.22
5.9640002 -0.193 -1.653 0.19
5.9549999 -0.17399999 -1.65 0.20999999
5.9640002 -0.155 -1.653 0.28999999
5.9710002 -0.146 -1.655 0.23
5.9640002 -0.127 -1.653 0.23
5.9530001 -0.108 -1.649 0.050000001
5.9439998 -0.089000002 -1.646 0.14
5.9569998 -0.071000002 -1.65 0.19
5.9499998 -0.052000001 -1.648 0.20999999
5.9439998 -0.033 -1.646 0.18000001
5.9660001 -0.024 -1.653 0.25999999
5.9559999 -0.0049999999 -1.65 0.19
5.7859998 0.013 -1.669 0.30000001
5.8049998 0.032000002 -1.675 0.19
5.7919998 0.050000001 -1.671 0.25
5.8070002 0.068000004 -1.676 0.25
5.7989998 0.086000003 -1.674 0.11
5.7800002 0.104 -1.668 0.039999999
5.7950001 0.113 -1.6720001 0.07
5.7750001 0.131 -1.666 0
5.7940001 0.15000001 -1.6720001 0.059999999
5.7930002 0.168 -1.6720001 0.14
5.7870002 0.186 -1.671 0.17
5.79 0.204 -1.6720001 0.1
5.803 0.223 -1.676 0.16
5.7820001 0.23100001 -1.669 0.050000001
5.796 0.25 -1.674 0.16
5.7839999 0.26800001 -1.671 0.2
5.8099999 0.287 -1.679 0.2
5.7709999 0.303 -1.6670001 0.059999999
5.7740002 0.322 -1.668 0
5.7649999 0.34 -1.666 0
5.7490001 0.34799999 -1.661 0
5.7859998 0.368 -1.673 0.13
5.7810001 0.38600001 -1.6720001 0.2
5.7779999 0.40400001 -1.671 0.1
5.7610002 0.421 -1.666 0.039999999
5.77 0.44 -1.669 0.029999999
5.7589998 0.45699999 -1.666 0.039999999
5.7690001 0.46700001 -1.67 0.13
5.7740002 0.486 -1.6720001 0.090000004
5.7950001 0.50599998 -1.679 0.16
5.7670002 0.52200001 -1.671 0.20999999
5.79 0.542 -1.678 0.2
5.7859998 0.56 -1.678 0.18000001
5.7800002 0.57800001 -1.676 0.16
5.7870002 0.588 -1.679 0.2
5.7680001 0.60399997 -1.674 0.11
5.7789998 0.62400001 -1.678 0.20999999
5.7930002 0.64399999 -1.682 0.2
5.7579999 0.65799999 -1.6720001 0.23999999
5.7680001 0.67799997 -1.676 0.090000004
5.7930002 0.69 -1.684 0.2
5.7719998 0.70599997 -1.678 0.27000001
5.7750001 0.72500002 -1.6799999 0.2
5.7620001 0.741 -1.676 0.23999999
5.7610002 0.75999999 -1.677 0.22
5.7490001 0.77600002 -1.674 0.11
5.7639999 0.79699999 -1.679 0.19
5.7579999 0.815 -1.678 0.20999999
5.7410002 0.82099998 -1.674 0.25
5.75 0.84100002 -1.677 0.17
5.7509999 0.86000001 -1.678 0.1
5.7709999 0.88099998 -1.6849999 0.18000001
5.7459998 0.89600003 -1.678 0.12
5.743 0.91399997 -1.678 0.19
5.723 0.92900002 -1.673 0.11
5.7350001 0.94 -1.677 0.2
5.7199998 0.95599997 -1.674 0.19
5.7119999 0.97299999 -1.6720001 0.039999999
5.7179999 0.99299997 -1.675 0.07
5.711 1.01 -1.674 0.14
5.7150002 1.03 -1.676 0.039999999
5.7249999 1.05 -1.6799999 0.079999998
5.7160001 1.058 -1.678 0.039999999
5.7410002 1.081 -1.687 0.14
5.7210002 1.096 -1.681 0.050000001
5.723 1.115 -1.683 0.16
5.704 1.13 -1.678 0.19
5.6989999 1.147 -1.678 0.039999999
5.7010002 1.1569999 -1.679 0.079999998
5.7189999 1.1799999 -1.686 0.14
5.7080002 1.196 -1.684 0.23
5.7179999 1.217 -1.688 0
5.6859999 1.228 -1.679 0
5.6869998 1.248 -1.681 0.029999999
5.6799998 1.265 -1.679 0.07
5.678 1.274 -1.679 0.079999998
5.6719999 1.291 -1.679 0.039999999
5.684 1.313 -1.684 0.07
5.6669998 1.327 -1.6799999 0.090000004
5.6589999 1.344 -1.679 0.039999999
5.664 1.364 -1.682 0.039999999
5.6490002 1.3789999 -1.678 0.029999999
5.6539998 1.39 -1.681 0.029999999
5.6810002 1.416 -1.691 0.12
5.658 1.429 -1.6849999 0.12
5.678 1.4529999 -1.692 0.2
5.6750002 1.471 -1.693 0.2
5.6370001 1.48 -1.682 0.039999999
5.6360002 1.499 -1.684 0.029999999
5.6279998 1.506 -1.682 0.029999999
5.625 1.524 -1.682 0.039999999
5.665 1.554 -1.697 0.14
5.6139998 1.559 -1.682 0.050000001
5.6110001 1.577 -1.682 0.07
5.6300001 1.602 -1.6900001 0.15000001
5.6170001 1.617 -1.688 0.22
5.6290002 1.631 -1.692 0.19
5.6240001 1.648 -1.692 0.059999999
5.6149998 1.665 -1.691 0.17
5.6069999 1.681 -1.6900001 0.11
5.5939999 1.697 -1.688 0.039999999
5.5890002 1.714 -1.688 0.029999999
5.579 1.7309999 -1.687 0.029999999
5.5819998 1.7410001 -1.688 0.029999999
5.579 1.7589999 -1.689 0.029999999
5.5749998 1.777 -1.689 0.039999999
5.5999999 1.8049999 -1.7 0.14
5.5780001 1.817 -1.694 0.12
5.5960002 1.8430001 -1.702 0.18000001
5.5879998 1.86 -1.701 0.23
5.5939999 1.8710001 -1.704 0.22
5.5869999 1.888 -1.704 0.25999999
5.586 1.908 -1.705 0.16
5.5619998 1.919 -1.7 0.07
5.5599999 1.938 -1.701 0.17
5.5619998 1.9579999 -1.704 0.2
5.5489998 1.973 -1.701 0.18000001
5.5799999 1.994 -1.7130001 0.14
5.552 2.0039999 -1.705 0.14
5.5279999 2.0150001 -1.7 0
5.52 2.0309999 -1.699 0
5.5219998 2.052 -1.702 0.059999999
5.5209999 2.072 -1.704 0.14
5.552 2.1029999 -1.716 0.17
5.52 2.1010001 -1.707 0
5.5050001 2.115 -1.704 0
5.5 2.1329999 -1.704 0
5.52 2.161 -1.7130001 0.13
5.533 2.1860001 -1.72 0.090000004
5.5120001 2.197 -1.715 0.31
5.5009999 2.2130001 -1.714 0.23999999
5.48 2.2149999 -1.7079999 0
5.079 2.069 -1.576 0
4.6230001 1.898 -1.425 0
4.599 1.905 -1.419 0
4.5739999 1.911 -1.413 0.029999999
4.585 1.933 -1.419 0.13
4.4029999 1.863 -1.359 0
4.4250002 1.8890001 -1.368 0
4.3629999 1.8789999 -1.349 0
4.349 1.8890001 -1.346 0
4.355 1.908 -1.35 0.050000001
4.3080001 1.919 -1.3380001 0.30000001
4.2839999 1.9170001 -1.331 0
4.256 1.92 -1.324 0
4.1750002 1.899 -1.298 0
4.1339998 1.896 -1.286 0
4.1209998 1.905 -1.284 0
4.098 1.91 -1.278 0
4.1149998 1.934 -1.286 0
4.1009998 1.9349999 -1.2819999 0
4.0739999 1.938 -1.275 0
3.9979999 1.9170001 -1.251 0
3.9779999 1.9220001 -1.2460001 0
3.9619999 1.9299999 -1.243 0
3.9419999 1.9349999 -1.238 0
3.931 1.9450001 -1.2359999 0
3.9159999 1.9450001 -1.232 0
3.8929999 1.949 -1.226 0
3.885 1.96 -1.226 0
3.858 1.962 -1.2180001 0
3.8469999 1.971 -1.217 0
3.829 1.977 -1.2130001 0
3.796 1.975 -1.2029999 0
3.789 1.979 -1.202 0
3.79 1.995 -1.204 0
3.7550001 1.9910001 -1.194 0
3.7539999 2.006 -1.196 0
3.7460001 2.017 -1.1950001 0
3.727 2.0220001 -1.191 0
3.711 2.0280001 -1.188 0
3.7130001 2.0369999 -1.1900001 0
3.7149999 2.053 -1.192 0
3.7079999 2.0650001 -1.192 0
3.677 2.062 -1.184 0
3.665 2.0710001 -1.182 0
3.6589999 2.082 -1.182 0.07
3.652 2.0940001 -1.182 0.15000001
3.641 2.095 -1.179 0.090000004
3.631 2.1040001 -1.178 0.18000001
3.6370001 2.1229999 -1.182 0.1
3.619 2.128 -1.178 0
3.6140001 2.1400001 -1.179 0
3.648 2.1760001 -1.194 0
3.6059999 2.158 -1.179 0
3.6070001 2.175 -1.182 0
3.602 2.187 -1.183 0
3.585 2.1919999 -1.179 0
3.5929999 2.2130001 -1.1849999 0
3.596 2.23 -1.188 0
3.5869999 2.24 -1.188 0
3.585 2.2550001 -1.1900001 0
3.5940001 2.2679999 -1.194 0
3.573 2.27 -1.189 0
3.585 2.2939999 -1.196 0
3.592 2.3150001 -1.201 0
3.5769999 2.3210001 -1.198 0
3.566 2.3299999 -1.197 0
3.575 2.352 -1.2029999 0
3.5739999 2.359 -1.204 0
3.592 2.388 -1.214 0.1
3.586 2.4000001 -1.214 0
3.579 2.411 -1.214 0
3.5799999 2.4289999 -1.2180001 0
3.573 2.4400001 -1.2180001 0
3.5680001 2.454 -1.219 0
3.569 2.4630001 -1.221 0
3.5639999 2.4760001 -1.222 0
3.5669999 2.4949999 -1.226 0
3.566 2.51 -1.229 0
3.5599999 2.523 -1.229 0.029999999
3.569 2.546 -1.2359999 0.13
3.572 2.5569999 -1.239 0.16
3.5550001 2.562 -1.235 0.20999999
3.585 2.6010001 -1.25 0.18000001
3.582 2.6159999 -1.252 0.75999999
3.572 2.6259999 -1.251 0.82999998
3.5929999 2.6589999 -1.262 0.85000002
3.5940001 2.677 -1.266 0.86000001
3.602 2.6919999 -1.27 0.86000001
3.6040001 2.7119999 -1.275 0.87
3.5699999 2.7030001 -1.265 0.81
3.569 2.72 -1.268 0.79000002
3.5799999 2.747 -1.275 0.81
3.5780001 2.7639999 -1.278 0.73000002
3.573 2.777 -1.279 0.81
3.5910001 2.8010001 -1.288 0.82999998
3.5780001 2.8080001 -1.286 0.80000001
3.602 2.846 -1.299 0.87
3.605 2.8670001 -1.304 0.86000001
3.5999999 2.882 -1.306 0.87
3.6010001 2.901 -1.3099999 0.86000001
3.598 2.9170001 -1.312 0.86000001
3.592 2.9219999 -1.312 0.86000001
3.5710001 2.9230001 -1.307 0.88
3.6040001 2.97 -1.324 0.87
3.599 2.9849999 -1.326 0.87
3.586 2.993 -1.324 0.72000003
3.592 3.0179999 -1.331 0.79000002
3.5940001 3.039 -1.336 0.86000001
3.5969999 3.0510001 -1.3380001 0.83999997
3.599 3.072 -1.3430001 0.85000002
3.609 3.1010001 -1.351 0.87
3.697 3.198 -1.392 0.69999999
3.4189999 2.973 -1.281 0
3.5510001 3.109 -1.34 0
3.5420001 3.1199999 -1.34 0
3.5510001 3.1389999 -1.346 0
3.5639999 3.1700001 -1.355 0
3.552 3.1800001 -1.354 0
3.5469999 3.1949999 -1.3559999 0
3.586 3.2520001 -1.377 0
3.592 3.2780001 -1.3839999 0
3.6300001 3.3340001 -1.404 0
3.678 3.3889999 -1.427 0
3.687 3.4189999 -1.4349999 0
3.6900001 3.4430001 -1.441 0
3.7090001 3.484 -1.454 0
3.714 3.51 -1.46 0
3.714 3.5320001 -1.465 0
4.5570002 4.3839998 -1.835 0.23999999
4.5500002 4.4050002 -1.8380001 0.23999999
4.5370002 4.421 -1.839 0.27000001
4.5149999 4.427 -1.835 0.050000001
4.5139999 4.4530001 -1.841 0.15000001
4.4980001 4.4660001 -1.84 0.2
4.5050001 4.4860001 -1.846 0.2
4.4689999 4.4790001 -1.837 0.050000001
4.46 4.4980001 -1.839 0.17
4.4489999 4.5149999 -1.84 0.19
4.4450002 4.54 -1.845 0.16
4.414 4.5359998 -1.837 0
4.3759999 4.5250001 -1.827 0
4.3140001 4.4749999 -1.802 0
4.2909999 4.4790001 -1.798 0
4.2680001 4.4829998 -1.794 0
4.2459998 4.4879999 -1.791 0
4.224 4.493 -1.7869999 0
4.2069998 4.5029998 -1.786 0
4.177 4.5 -1.779 0
4.1550002 4.4889998 -1.772 0
4.138 4.4990001 -1.77 0
4.1009998 4.487 -1.76 0
4.0960002 4.5100002 -1.7640001 0
4.0840001 4.5250001 -1.765 0
4.0609999 4.5279999 -1.761 0
4.0489998 4.5440001 -1.762 0
4.0450001 4.553 -1.763 0
4.0609999 4.5999999 -1.778 0.059999999
4.1350002 4.7150002 -1.8200001 0.079999998
4.2059999 4.8280001 -1.86 0.18000001
4.171 4.8179998 -1.851 0.050000001
4.1539998 4.8280001 -1.85 0.17
4.1420002 4.8460002 -1.851 0.2
4.131 4.848 -1.85 0.1
4.132 4.8800001 -1.857 0.18000001
4.1100001 4.8850002 -1.854 0.2
4.0879998 4.8889999 -1.851 0.34999999
4.0749998 4.9050002 -1.852 0.28999999
4.0749998 4.9369998 -1.86 0.34999999
4.0359998 4.9219999 -1.848 0.28
4.027 4.927 -1.848 0.33000001
4.0170002 4.9450002 -1.85 0.31999999
3.987 4.9400001 -1.8430001 0.34999999
3.964 4.9429998 -1.84 0.38
3.9619999 4.9720001 -1.846 0.33000001
3.934 4.9699998 -1.84 0.44
3.9189999 4.9819999 -1.84 0.31
3.8959999 4.9689999 -1.8329999 0.23999999
3.859 4.954 -1.822 0.33000001
3.8440001 4.967 -1.822 0.30000001
3.823 4.9720001 -1.8200001 0.36000001
3.7969999 4.9699998 -1.814 0.43000001
3.783 4.9829998 -1.8150001 0.34
3.763 4.9910002 -1.813 0.28999999
3.7449999 4.9829998 -1.808 0.38
3.721 4.9819999 -1.803 0.33000001
3.7079999 4.9990001 -1.8049999 0.31999999
3.678 4.9899998 -1.7970001 0.30000001
3.661 5 -1.796 0.31999999
3.648 5.0149999 -1.798 0.28999999
3.631 5.0250001 -1.7970001 0.27000001
3.622 5.0289998 -1.796 0.28
3.6159999 5.0539999 -1.802 0.28999999
3.5869999 5.0469999 -1.795 0.30000001
3.5669999 5.052 -1.7920001 0.30000001
3.553 5.066 -1.794 0.31999999
3.5179999 5.0500002 -1.783 0.28999999
3.506 5.066 -1.785 0.28999999
3.5039999 5.0809999 -1.789 0.27000001
3.4879999 5.092 -1.789 0.28999999
3.4679999 5.0970001 -1.786 0.30000001
3.467 5.1300001 -1.795 0.27000001
3.4400001 5.125 -1.789 0.30000001
3.425 5.1370001 -1.789 0.28
3.4089999 5.1479998 -1.789 0.28999999
3.3970001 5.1469998 -1.7869999 0.28
3.388 5.1690001 -1.791 0.28
3.3729999 5.1810002 -1.7920001 0.27000001
3.3559999 5.191 -1.7920001 0.27000001
3.3410001 5.204 -1.7920001 0.27000001
3.3199999 5.2080002 -1.79 0.28
3.306 5.2210002 -1.791 0.27000001
3.296 5.223 -1.79 0.25999999
3.2820001 5.237 -1.791 0.28999999
3.2650001 5.2470002 -1.791 0.23
3.2539999 5.2649999 -1.794 0.28999999
3.2449999 5.289 -1.799 0.31999999
3.2149999 5.2779999 -1.791 0.23999999
3.2079999 5.302 -1.796 0.36000001
3.201 5.3109999 -1.798 0.37
3.188 5.3260002 -1.799 0.34999999
3.1730001 5.3390002 -1.801 0.30000001
3.154 5.3460002 -1.799 0.30000001
3.1300001 5.3439999 -1.795 0.30000001
3.1199999 5.3649998 -1.799 0.28999999
3.105 5.3779998 -1.801 0.28999999
3.099 5.3870001 -1.802 0.27000001
3.089 5.4099998 -1.807 0.25
3.0639999 5.4039998 -1.801 0.30000001
3.049 5.4169998 -1.802 0.25
3.0320001 5.427 -1.802 0.17
3.0150001 5.4359999 -1.802 0.31
3 5.4510002 -1.804 0.25
2.994 5.4590001 -1.8049999 0.16
2.974 5.4629998 -1.804 0.28999999
2.967 5.4910002 -1.8099999 0.23999999
2.951 5.5040002 -1.811 0.27000001
2.9319999 5.5089998 -1.8099999 0.18000001
2.915 5.5190001 -1.8099999 0.27000001
2.9119999 5.5349998 -1.814 0.23
2.902 5.5580001 -1.819 0.17
2.8789999 5.5570002 -1.8150001 0.25999999
2.869 5.579 -1.8200001 0.23999999
2.8499999 5.5869999 -1.8200001 0.2
2.8399999 5.6110001 -1.825 0.37
2.812 5.598 -1.817 0.20999999
2.806 5.6090002 -1.8200001 0.28999999
2.7909999 5.6230001 -1.821 0.25
2.773 5.632 -1.821 0.25999999
2.756 5.6420002 -1.822 0.15000001
2.743 5.6589999 -1.825 0.28999999
2.7190001 5.6539998 -1.8200001 0.23999999
2.7049999 5.671 -1.823 0.17
2.688 5.6810002 -1.824 0.28999999
2.6789999 5.6859999 -1.824 0.25
2.6630001 5.697 -1.825 0.16
2.6429999 5.7020001 -1.824 0.28999999
2.6270001 5.7140002 -1.825 0.23999999
2.6110001 5.7270002 -1.827 0.23999999
2.589 5.7270002 -1.824 0.18000001
2.5769999 5.7470002 -1.8279999 0.30000001
2.5650001 5.7459998 -1.826 0.25
2.5469999 5.7540002 -1.826 0.25999999
2.5280001 5.7600002 -1.825 0.18000001
2.51 5.7680001 -1.825 0.27000001
2.4920001 5.776 -1.825 0.25
2.474 5.7839999 -1.825 0.19
2.457 5.7950001 -1.827 0.27000001
2.45 5.8039999 -1.8279999 0.25
2.4260001 5.7979999 -1.824 0.18000001
2.4089999 5.8070002 -1.824 0.27000001
2.3940001 5.8239999 -1.827 0.23999999
2.3740001 5.8270001 -1.826 0.25999999
2.3610001 5.8470001 -1.83 0.25
2.345 5.862 -1.8329999 0.28999999
2.3269999 5.842 -1.825 0.17
2.312 5.8590002 -1.8279999 0.31
2.293 5.8639998 -1.827 0.25
2.2750001 5.8730001 -1.8279999 0.25999999
2.2579999 5.8839998 -1.829 0.25999999
2.2379999 5.8850002 -1.827 0.25
2.223 5.9029999 -1.831 0.25
2.204 5.8800001 -1.822 0.17
2.1930001 5.908 -1.829 0.28999999
2.175 5.915 -1.829 0.23999999
2.1530001 5.9130001 -1.826 0.25999999
2.1359999 5.9229999 -1.827 0.27000001
2.1199999 5.9369998 -1.83 0.27000001
2.0999999 5.9400001 -1.8279999 0.18000001
2.089 5.9400001 -1.827 0.28
2.072 5.9520001 -1.829 0.25
2.0599999 5.9759998 -1.835 0.25
2.0339999 5.961 -1.8279999 0.17
2.017 5.973 -1.83 0.28999999
1.999 5.9829998 -1.831 0.25
1.9809999 5.9910002 -1.831 0.25
1.975 6.0029998 -1.834 0.28999999
1.952 5.9959998 -1.83 0.30000001
1.9349999 6.0100002 -1.8329999 0.25999999
1.916 6.0159998 -1.8329999 0.27000001
1.893 6.0089998 -1.8279999 0.16
1.876 6.02 -1.83 0.28999999
1.858 6.0300002 -1.831 0.23999999
1.849 6.0349998 -1.832 0.27000001
1.831 6.0419998 -1.8329999 0.27000001
1.8099999 6.0430002 -1.831 0.25999999
1.7920001 6.052 -1.832 0.27000001
1.777 6.0689998 -1.835 0.27000001
1.756 6.0689998 -1.834 0.27000001
1.739 6.0809999 -1.836 0.23
1.734 6.1009998 -1.841 0.28
1.71 6.0900002 -1.836 0.30000001
1.696 6.1129999 -1.842 0.25999999
1.6720001 6.1020002 -1.837 0.31
1.653 6.105 -1.836 0.28
1.635 6.1139998 -1.837 0.25999999
1.619 6.1339998 -1.842 0.23
1.6059999 6.1220002 -1.837 0.28999999
1.584 6.118 -1.834 0.20999999
1.566 6.1259999 -1.835 0.27000001
1.548 6.1389999 -1.8380001 0.22
1.526 6.1300001 -1.834 0.18000001
1.5089999 6.1440001 -1.837 0.28999999
1.49 6.1529999 -1.8380001 0.25
1.483 6.1659999 -1.841 0.25
1.461 6.1599998 -1.8380001 0.18000001
1.443 6.1659999 -1.8380001 0.27000001
1.427 6.1880002 -1.844 0.23999999
1.404 6.1750002 -1.8380001 0.25
1.3839999 6.1760001 -1.837 0.27000001
1.369 6.204 -1.845 0.23999999
1.359 6.2030001 -1.844 0.28
1.336 6.1900001 -1.8380001 0.2
1.318 6.204 -1.841 0.28
1.2970001 6.1999998 -1.839 0.23999999
1.278 6.204 -1.839 0.2
1.261 6.223 -1.844 0.27000001
1.24 6.2199998 -1.841 0.23999999
1.23 6.2199998 -1.841 0.16
1.214 6.2410002 -1.846 0.28
1.191 6.2290001 -1.841 0.25
1.1720001 6.2329998 -1.841 0.19
1.152 6.2389998 -1.842 0.25999999
1.133 6.2420001 -1.842 0.25
1.114 6.2509999 -1.844 0.23
1.109 6.2779999 -1.851 0.28999999
1.084 6.2529998 -1.8430001 0.23
1.0650001 6.2600002 -1.844 0.27000001
1.048 6.277 -1.848 0.2
1.025 6.263 -1.8430001 0.25
1.008 6.283 -1.848 0.23
0.98699999 6.277 -1.845 0.16
0.977 6.276 -1.844 0.30000001
0.958 6.2870002 -1.847 0.25
0.94 6.2969999 -1.849 0.25999999
0.91900003 6.2950001 -1.847 0.20999999
0.89899999 6.2940001 -1.846 0.27000001
0.88099998 6.316 -1.852 0.25
0.86199999 6.3200002 -1.853 0.25
0.85100001 6.316 -1.851 0.31999999
0.83399999 6.336 -1.8559999 0.28
0.81099999 6.3210001 -1.851 0.27000001
0.792 6.3249998 -1.851 0.31
0.77200001 6.3299999 -1.852 0.28999999
0.75199997 6.3319998 -1.852 0.27000001
0.73299998 6.3400002 -1.854 0.28
0.72500002 6.355 -1.858 0.28
0.70300001 6.342 -1.853 0.30000001
0.68300003 6.3460002 -1.854 0.28999999
0.66299999 6.3400002 -1.851 0.30000001
0.64200002 6.3400002 -1.851 0.28999999
0.62199998 6.3390002 -1.85 0.28999999
0.60399997 6.3629999 -1.857 0.25
0.58200002 6.342 -1.85 0.18000001
0.57300001 6.355 -1.853 0.28999999
0.55400002 6.3600001 -1.854 0.25
0.53299999 6.3559999 -1.853 0.19
0.51300001 6.3559999 -1.852 0.27000001
0.49399999 6.3649998 -1.854 0.25
0.47400001 6.3709998 -1.8559999 0.20999999
0.454 6.3740001 -1.8559999 0.34999999
0.44400001 6.369 -1.854 0.17
0.42399999 6.3759999 -1.8559999 0.28
0.40400001 6.3850002 -1.859 0.25
0.38499999 6.3940001 -1.8609999 0.25999999
0.36399999 6.3889999 -1.859 0.25999999
0.34400001 6.3899999 -1.859 0.2
0.32499999 6.4029999 -1.863 0.27000001
0.31400001 6.3940001 -1.86 0.23
0.294 6.381 -1.8559999 0.18000001
0.27500001 6.4070001 -1.863 0.28
0.255 6.4099998 -1.864 0.25
0.235 6.4159999 -1.8660001 0.27000001
0.215 6.4299998 -1.87 0.25999999
0.19400001 6.4039998 -1.8609999 0.28999999
0.184 6.4120002 -1.864 0.25999999
0.164 6.4299998 -1.869 0.23
0.14399999 6.4130001 -1.864 0.20999999
0.124 6.421 -1.8660001 0.27000001
0.104 6.4200001 -1.8660001 0.23
0.082999997 6.4219999 -1.8660001 0.16
0.063000001 6.4169998 -1.864 0.28999999
0.052999999 6.4200001 -1.8660001 0.25
0.033 6.4260001 -1.867 0.25999999
0.013 6.4320002 -1.869 0.25999999
-0.0070000002 6.428 -1.868 0.25999999
-0.028000001 6.4299998 -1.869 0.23
-0.048 6.4419999 -1.872 0.30000001
-0.068000004 6.4489999 -1.874 0.25
-0.079000004 6.4510002 -1.875 0.27000001
-0.097999997 6.4260001 -1.867 0.18000001
-0.119 6.4429998 -1.873 0.27000001
-0.139 6.4419999 -1.873 0.23999999
-0.16 6.4510002 -1.876 0.25
-0.18000001 6.4450002 -1.874 0.28
-0.199 6.427 -1.869 0.2
-0.20999999 6.4400001 -1.873 0.28999999
-0.23 6.447 -1.875 0.23999999
-0.25099999 6.448 -1.876 0.25999999
-0.271 6.4549999 -1.878 0.25
-0.29100001 6.4369998 -1.873 0.2
-0.31099999 6.4320002 -1.872 0.28999999
-0.33199999 6.4450002 -1.876 0.25
-0.34200001 6.4499998 -1.877 0.27000001
-0.36300001 6.4580002 -1.88 0.23999999
-0.382 6.4359999 -1.874 0.18000001
-0.403 6.448 -1.878 0.28999999
-0.42399999 6.4530001 -1.88 0.25
-0.44499999 6.4590001 -1.882 0.27000001
-0.46399999 6.4400001 -1.877 0.18000001
-0.47499999 6.4549999 -1.882 0.28
-0.49599999 6.4629998 -1.885 0.25
-0.51599997 6.4590001 -1.8839999 0.16
-0.537 6.4650002 -1.886 0.30000001
-0.55800003 6.4689999 -1.888 0.25
-0.579 6.473 -1.89 0.19
-0.59799999 6.4559999 -1.885 0.27000001
-0.60900003 6.4629998 -1.887 0.23999999
-0.62900001 6.4590001 -1.887 0.25
-0.64899999 6.4530001 -1.886 0.25999999
-0.66900003 6.4549999 -1.887 0.19
-0.69099998 6.4640002 -1.89 0.27000001
-0.71100003 6.4640002 -1.891 0.25
-0.73199999 6.4650002 -1.892 0.25999999
-0.741 6.4549999 -1.8890001 0.25999999
-0.76200002 6.4559999 -1.89 0.25
-0.78200001 6.4559999 -1.891 0.28999999
-0.801 6.4400001 -1.887 0.28999999
-0.82099998 6.4349999 -1.886 0.17
-0.84299999 6.4499998 -1.892 0.28999999
-0.86299998 6.4450002 -1.891 0.25
-0.875 6.4510002 -1.893 0.25999999
-0.89499998 6.4510002 -1.8940001 0.25
-0.91299999 6.4330001 -1.8890001 0.25999999
-0.93400002 6.4320002 -1.89 0.16
-0.95499998 6.434 -1.892 0.28999999
-0.97600001 6.4369998 -1.893 0.25
-0.99800003 6.447 -1.898 0.23999999
-1.02 6.4510002 -1.9 0.28
-1.029 6.448 -1.899 0.31999999
-1.048 6.4349999 -1.896 0.27000001
-1.067 6.4229999 -1.893 0.28999999
-1.085 6.4099998 -1.89 0.28
-1.105 6.4029999 -1.8890001 0.30000001
-1.125 6.3990002 -1.8890001 0.28999999
-1.1440001 6.3899999 -1.887 0.27000001
-1.1569999 6.4050002 -1.893 0.34
-1.178 6.4050002 -1.8940001 0.31999999
-1.196 6.3899999 -1.89 0.31999999
-1.216 6.388 -1.891 0.33000001
-1.239 6.3969998 -1.895 0.33000001
-1.256 6.3769999 -1.89 0.31
-1.276 6.3730001 -1.89 0.27000001
-1.288 6.3800001 -1.893 0.33000001
-1.307 6.3720002 -1.892 0.28999999
-1.33 6.381 -1.896 0.34
-1.347 6.3660002 -1.892 0.28999999
-1.367 6.3610001 -1.892 0.30000001
-1.387 6.3569999 -1.892 0.33000001
-1.409 6.3600001 -1.895 0.31999999
-1.419 6.3579998 -1.895 0.28
-1.4400001 6.3610001 -1.897 0.33000001
-1.461 6.3579998 -1.898 0.31
-1.479 6.3460002 -1.895 0.28
-1.502 6.3540001 -1.899 0.36000001
-1.521 6.3439999 -1.898 0.27000001
-1.5420001 6.3429999 -1.899 0.38
-1.55 6.3330002 -1.896 0.31
-1.5700001 6.3299999 -1.897 0.30000001
-1.591 6.3309999 -1.899 0.30000001
-1.612 6.3280001 -1.899 0.33000001
-1.633 6.3260002 -1.9 0.31
-1.651 6.3150001 -1.899 0.28999999
-1.6720001 6.3140001 -1.9 0.33000001
-1.682 6.3109999 -1.9 0.33000001
-1.697 6.289 -1.895 0.31999999
-1.717 6.2859998 -1.895 0.28999999
-1.7410001 6.2930002 -1.899 0.27000001
-1.758 6.2789998 -1.896 0.20999999
-1.776 6.2690001 -1.895 0.27000001
-1.7970001 6.2659998 -1.896 0.23
-1.808 6.2659998 -1.897 0.25999999
-1.825 6.2529998 -1.895 0.25999999
-1.842 6.2389998 -1.892 0.16
-1.865 6.2449999 -1.896 0.28
-1.886 6.2410002 -1.896 0.25
-1.9119999 6.257 -1.903 0.25
-1.9299999 6.2480001 -1.902 0.33000001
-1.932 6.217 -1.893 0.16
-1.955 6.224 -1.898 0.28999999
-1.978 6.2290001 -1.901 0.23999999
-1.989 6.1950002 -1.892 0.18000001
-2.013 6.2020001 -1.896 0.25999999
-2.0339999 6.2010002 -1.898 0.23999999
-2.0510001 6.1869998 -1.896 0.2
-2.0639999 6.1950002 -1.899 0.27000001
-2.0880001 6.2010002 -1.903 0.23999999
-2.102 6.178 -1.898 0.19
-2.125 6.1820002 -1.902 0.27000001
-2.152 6.1950002 -1.908 0.23
-2.1619999 6.1630001 -1.9 0.17
-2.1849999 6.1669998 -1.903 0.30000001
-2.21 6.177 -1.909 0.23999999
-2.2130001 6.1529999 -1.902 0.16
-2.237 6.1589999 -1.906 0.28999999
-2.26 6.1630001 -1.91 0.25
-2.2780001 6.1500001 -1.908 0.25999999
-2.296 6.1409998 -1.908 0.19
-2.3239999 6.1550002 -1.915 0.27000001
-2.3399999 6.1409998 -1.9119999 0.25
-2.349 6.1350002 -1.9119999 0.25999999
-2.381 6.1599998 -1.9220001 0.27000001
-2.3929999 6.1329999 -1.916 0.27000001
-2.4159999 6.1360002 -1.919 0.28
-2.438 6.1339998 -1.921 0.31
-2.4449999 6.098 -1.9119999 0.27000001
-2.464 6.0900002 -1.9119999 0.25999999
-2.483 6.1090002 -1.919 0.33000001
-2.4920001 6.0770001 -1.911 0.30000001
-2.51 6.0650001 -1.91 0.31
-2.533 6.0679998 -1.913 0.28
-2.5550001 6.0669999 -1.916 0.40000001
-2.5710001 6.0500002 -1.913 0.31999999
-2.595 6.0539999 -1.9170001 0.25999999
-2.5999999 6.04 -1.913 0.25999999
-2.6159999 6.0240002 -1.911 0.27000001
-2.6429999 6.0339999 -1.9170001 0.25999999
-2.6589999 6.02 -1.915 0.27000001
-2.6760001 6.0079999 -1.914 0.16
-2.6989999 6.0079999 -1.9170001 0.28999999
-2.7130001 5.9879999 -1.913 0.23999999
-2.721 5.9819999 -1.9119999 0.19
-2.7420001 5.9770002 -1.913 0.27000001
-2.763 5.973 -1.915 0.22
-2.7809999 5.9629998 -1.915 0.14
-2.8039999 5.9640002 -1.918 0.31
-2.8180001 5.9450002 -1.915 0.23999999
-2.839 5.941 -1.916 0.2
-2.8510001 5.9419999 -1.918 0.27000001
-2.868 5.9299998 -1.9170001 0.23
-2.8840001 5.9159999 -1.915 0.25999999
-2.9130001 5.927 -1.9220001 0.22
-2.931 5.9159999 -1.9220001 0.31999999
-2.948 5.9029999 -1.921 0.28999999
-2.9619999 5.8860002 -1.918 0.19
-2.967 5.8720002 -1.915 0.28999999
-2.9879999 5.868 -1.916 0.23999999
-3.0079999 5.862 -1.918 0.28999999
-3.029 5.8579998 -1.919 0.27000001
-3.046 5.8470001 -1.919 0.28
-3.0639999 5.835 -1.918 0.28
-3.075 5.8119998 -1.913 0.30000001
-3.0940001 5.8039999 -1.914 0.28999999
-3.1059999 5.8039999 -1.916 0.25999999
-3.1240001 5.7950001 -1.916 0.28
-3.1389999 5.7779999 -1.913 0.31
-3.1570001 5.7680001 -1.913 0.28999999
-3.1730001 5.7550001 -1.9119999 0.28
-3.187 5.7379999 -1.91 0.28999999
-3.2179999 5.75 -1.918 0.25
-3.2219999 5.7360001 -1.915 0.25
-3.2320001 5.7129998 -1.91 0.33000001
-3.2479999 5.6989999 -1.909 0.27000001
-3.2620001 5.6810002 -1.906 0.27000001
-3.28 5.6719999 -1.906 0.27000001
-3.302 5.6690001 -1.909 0.28999999
-3.3110001 5.6630001 -1.909 0.27000001
-3.326 5.6479998 -1.9069999 0.25999999
-3.3510001 5.651 -1.9119999 0.27000001
-3.368 5.638 -1.911 0.27000001
-3.3859999 5.6279998 -1.911 0.27000001
-3.4030001 5.6170001 -1.911 0.28999999
-3.421 5.6059999 -1.911 0.27000001
-3.434 5.5879998 -1.908 0.27000001
-3.4430001 5.5840001 -1.909 0.28999999
-3.464 5.5780001 -1.911 0.25999999
-3.484 5.5700002 -1.9119999 0.25
-3.4879999 5.5380001 -1.904 0.22
-3.51 5.5349998 -1.9069999 0.25999999
-3.5350001 5.5349998 -1.911 0.23
-3.55 5.5209999 -1.91 0.19
-3.556 5.5110002 -1.908 0.28
-3.576 5.5040002 -1.91 0.25
-3.602 5.506 -1.915 0.23999999
-3.618 5.493 -1.914 0.28999999
-3.635 5.4809999 -1.914 0.31
-3.6429999 5.4559999 -1.909 0.12
-3.6630001 5.4489999 -1.911 0.2
-3.6849999 5.4619999 -1.918 0.25
-3.687 5.4289999 -1.909 0.18000001
-3.707 5.4219999 -1.911 0.28999999
-3.721 5.4050002 -1.909 0.25
-3.7490001 5.4089999 -1.915 0.27000001
-3.76 5.3899999 -1.9119999 0.28999999
-3.7809999 5.3839998 -1.915 0.25999999
-3.7880001 5.375 -1.913 0.28999999
-3.799 5.355 -1.911 0.28999999
-3.8139999 5.3400002 -1.909 0.30000001
-3.8280001 5.3249998 -1.908 0.28999999
-3.852 5.322 -1.9119999 0.25999999
-3.8629999 5.302 -1.909 0.31
-3.881 5.2930002 -1.91 0.28999999
-3.8800001 5.2729998 -1.905 0.28999999
-3.8959999 5.2610002 -1.905 0.27000001
-3.914 5.2509999 -1.905 0.27000001
-3.9349999 5.244 -1.908 0.25
-3.9419999 5.2199998 -1.903 0.28999999
-3.964 5.2150002 -1.906 0.28
-3.9760001 5.1960001 -1.903 0.25999999
-3.9879999 5.178 -1.901 0.25999999
-3.987 5.1609998 -1.897 0.23
-3.9920001 5.1329999 -1.891 0.31999999
-3.9749999 5.079 -1.874 0.17
-3.997 5.0739999 -1.877 0.22
-4.0440001 5.0999999 -1.893 0.23999999
-4.066 5.0949998 -1.896 0.28
-4.0999999 5.1040001 -1.905 0.31
-4.086 5.0710001 -1.8940001 0.23999999
-4.1069999 5.0640001 -1.896 0.31999999
-4.1440001 5.0780001 -1.9069999 0.37
-4.152 5.0539999 -1.903 0.34
-4.007 4.849 -1.825 0.039999999
-3.6530001 4.3959999 -1.648 0
-3.6270001 4.3379998 -1.6289999 0
-3.6140001 4.309 -1.619 0
-3.6270001 4.296 -1.619 0
-3.6389999 4.283 -1.618 0
-3.661 4.2820001 -1.622 0
-3.6849999 4.2820001 -1.627 0
-3.6960001 4.2670002 -1.626 0
-3.71 4.257 -1.626 0
-3.7409999 4.2779999 -1.637 0
-3.747 4.2579999 -1.6339999 0
-3.773 4.2600002 -1.64 0
-3.796 4.2600002 -1.645 0
-3.8199999 4.2589998 -1.649 0
-3.9000001 4.3210001 -1.6799999 0
-4.2639999 4.6900001 -1.84 0.02
-4.447 4.875 -1.921 0.079999998
-4.5089998 4.9109998 -1.942 0.20999999
-4.552 4.9260001 -1.954 0.25999999
-4.5679998 4.9130001 -1.955 0.25999999
-4.6009998 4.9169998 -1.9630001 0.28999999
-4.632 4.9190001 -1.97 0.28999999
-4.6669998 4.9250002 -1.978 0.25
-4.6739998 4.901 -1.974 0.20999999
-4.6680002 4.8800001 -1.9680001 0
-4.506 4.6830001 -1.89 0
-4.1230001 4.2610002 -1.714 0
-4.1110001 4.2220001 -1.7029999 0
-4.1069999 4.1919999 -1.6950001 0
-4.1129999 4.1719999 -1.692 0
-4.1199999 4.152 -1.689 0
-4.1220002 4.1420002 -1.687 0
-4.1350002 4.1290002 -1.687 0
-4.1599998 4.1279998 -1.692 0
-4.1760001 4.118 -1.694 0
-4.2010002 4.1160002 -1.699 0.059999999
-4.2459998 4.1339998 -1.7130001 0
-4.302 4.1750002 -1.734 0.079999998
-4.2919998 4.1389999 -1.724 0.17
-4.316 4.1360002 -1.729 0.16
-4.3299999 4.1240001 -1.729 0.039999999
-4.3600001 4.1259999 -1.7359999 0
-4.3800001 4.118 -1.739 0
-4.4060001 4.118 -1.745 0
-4.4310002 4.1139998 -1.75 0.059999999
-4.4710002 4.138 -1.7640001 0.14
-4.5089998 4.1469998 -1.775 0.18000001
-4.5240002 4.1339998 -1.775 0.22
-4.5419998 4.125 -1.778 0.40000001
-4.527 4.085 -1.766 0
-4.5580001 4.0879998 -1.773 0
-4.5819998 4.0830002 -1.778 0
-4.7179999 4.1900001 -1.831 0.090000004
-5.0570002 4.461 -1.965 0.23
-5.086 4.4569998 -1.971 0.28999999
-5.0939999 4.4359999 -1.969 0.27000001
-5.1170001 4.428 -1.973 0.28999999
-5.1129999 4.3969998 -1.965 0.28999999
-5.1230001 4.3769999 -1.964 0.23999999
-5.1220002 4.3629999 -1.961 0.27000001
-5.1339998 4.3449998 -1.96 0.31
-5.1440001 4.3260002 -1.9579999 0.22
-5.145 4.3000002 -1.954 0.13
-5.1630001 4.2870002 -1.955 0.20999999
-5.1570001 4.2550001 -1.948 0.14
-5.178 4.2449999 -1.951 0.28999999
-5.1830001 4.2360001 -1.95 0.1
-5.1939998 4.217 -1.949 0.18000001
-5.1919999 4.1890001 -1.943 0.12
-5.2080002 4.1750002 -1.944 0.28999999
-5.211 4.1500001 -1.9400001 0.23
-5.2129998 4.125 -1.936 0.2
-5.2280002 4.1100001 -1.937 0.16
-5.243 4.1090002 -1.9400001 0.25999999
-5.25 4.0879998 -1.938 0.18000001
-5.2540002 4.0640001 -1.934 0.25
-5.263 4.0450001 -1.933 0.19
-5.276 4.0289998 -1.933 0.23999999
-5.3010001 4.0219998 -1.938 0.18000001
-5.303 3.997 -1.934 0.23
-5.2950001 3.9779999 -1.928 0.039999999
-5.323 3.973 -1.934 0.14
-5.3109999 3.938 -1.925 0.22
-5.3340001 3.9289999 -1.929 0.23
-5.3649998 3.9260001 -1.936 0.23999999
-5.348 3.888 -1.925 0.22
-5.348 3.862 -1.92 0.039999999
-5.3579998 3.8440001 -1.919 0.07
-5.3740001 3.842 -1.923 0.16
-5.3860002 3.826 -1.923 0.20999999
-5.4050002 3.8139999 -1.926 0.18000001
-5.3920002 3.78 -1.916 0.25
-5.4070001 3.7650001 -1.918 0.18000001
-5.4060001 3.7390001 -1.913 0.23999999
-5.4089999 3.7290001 -1.9119999 0.20999999
-5.4159999 3.7079999 -1.91 0.23
-5.4310002 3.6930001 -1.911 0.25
-5.4310002 3.6689999 -1.9069999 0.090000004
-5.4510002 3.6570001 -1.91 0.14
-5.454 3.635 -1.9069999 0.20999999
-5.4689999 3.6199999 -1.908 0.22
-5.447 3.5810001 -1.896 0.25
-5.473 3.585 -1.903 0.25999999
-5.467 3.5569999 -1.897 0.2
-5.4569998 3.526 -1.8890001 0.22
-5.4710002 3.5109999 -1.89 0.17
-5.4819999 3.494 -1.89 0.16
-5.5 3.4809999 -1.893 0.28
-5.506 3.46 -1.891 0
-5.4790001 3.4319999 -1.8789999 0
-5.4970002 3.4189999 -1.882 0.13
-5.5149999 3.4059999 -1.885 0.19
-5.5370002 3.3959999 -1.8890001 0.23
-5.5359998 3.3710001 -1.885 0.2
-5.553 3.358 -1.887 0.16
-5.539 3.326 -1.878 0.17
-5.5479999 3.319 -1.8789999 0.18000001
-5.573 3.3099999 -1.885 0.23999999
-5.5599999 3.279 -1.876 0.17
-5.5689998 3.2609999 -1.876 0.25999999
-5.5939999 3.2520001 -1.881 0.22
-5.579 3.22 -1.872 0.16
-5.5939999 3.2049999 -1.874 0.28
-5.5939999 3.194 -1.872 0.18000001
-5.5809999 3.1630001 -1.864 0.23
-5.5970001 3.1489999 -1.8660001 0.18000001
-5.6209998 3.1389999 -1.8710001 0.23999999
-5.6339998 3.1229999 -1.872 0.19
-5.6170001 3.0910001 -1.863 0.12
-5.6329999 3.0769999 -1.865 0.18000001
-5.6209998 3.059 -1.859 0.2
-5.6479998 3.05 -1.865 0.16
-5.6500001 3.029 -1.863 0.23999999
-5.6479998 3.0050001 -1.859 0.20999999
-5.6659999 2.9920001 -1.8609999 0.20999999
-5.6820002 2.977 -1.864 0.13
-5.6810002 2.954 -1.86 0.18000001
-5.6810002 2.9430001 -1.859 0.2
-5.704 2.9319999 -1.863 0.17
-5.6680002 2.891 -1.848 0.23999999
-5.6760001 2.8729999 -1.847 0.1
-5.7049999 2.865 -1.854 0.17
-5.6830001 2.832 -1.844 0.050000001
-5.6890001 2.812 -1.8430001 0.18000001
-5.698 2.806 -1.844 0.11
-5.711 2.79 -1.846 0.20999999
-5.7160001 2.77 -1.844 0.2
-5.7059999 2.743 -1.8380001 0.16
-5.6999998 2.7190001 -1.8329999 0.1
-5.7179999 2.7049999 -1.836 0.20999999
-5.7379999 2.6919999 -1.84 0.16
-5.7490001 2.687 -1.8430001 0.28999999
-5.7540002 2.6670001 -1.841 0.25
-5.77 2.652 -1.844 0.19
-5.7690001 2.6300001 -1.841 0.27000001
-5.7639999 2.6059999 -1.836 0.039999999
-5.7750001 2.589 -1.837 0.16
-5.7709999 2.566 -1.8329999 0.19
-5.7859998 2.5610001 -1.837 0.22
-5.776 2.5350001 -1.831 0.19
-5.7930002 2.5209999 -1.834 0.16
-5.7940001 2.5 -1.831 0.039999999
-5.8169999 2.4879999 -1.837 0.17
-5.816 2.4660001 -1.834 0.2
-5.8280001 2.4489999 -1.835 0.2
-5.8239999 2.437 -1.8329999 0.12
-5.8200002 2.414 -1.8279999 0.079999998
-5.822 2.3929999 -1.827 0.039999999
-5.8309999 2.3759999 -1.827 0.07
-5.8720002 2.3710001 -1.8380001 0.18000001
-5.8410001 2.3369999 -1.825 0
-5.816 2.306 -1.8150001 0
-5.8429999 2.306 -1.822 0
-5.816 2.2750001 -1.811 0
-5.8280001 2.2579999 -1.813 0
-5.8460002 2.244 -1.817 0
-5.848 2.224 -1.8150001 0
-5.8400002 2.2 -1.8099999 0
-5.835 2.177 -1.806 0
-6.0159998 1.518 -1.799 0
-6.052 1.507 -1.809 0
-6.046 1.485 -1.8049999 0
-6.0409999 1.464 -1.802 0
-6.04 1.444 -1.801 0.029999999
-6.0580001 1.438 -1.8049999 0.12
-6.0900002 1.425 -1.814 0.17
-6.079 1.402 -1.809 0.17
-6.0749998 1.381 -1.807 0.090000004
-6.1110001 1.369 -1.817 0.19
-6.092 1.345 -1.809 0.11
-6.0760002 1.322 -1.803 0.079999998
-6.0970001 1.316 -1.809 0.039999999
-6.118 1.3 -1.814 0.14
-6.1009998 1.277 -1.808 0.20999999
-6.105 1.258 -1.808 0.039999999
-6.085 1.234 -1.8 0.029999999
-6.0890002 1.215 -1.8 0.029999999
-6.1020002 1.197 -1.803 0.029999999
-6.1339998 1.193 -1.812 0.14
-6.119 1.171 -1.807 0.20999999
-6.1259999 1.152 -1.808 0.16
-6.1129999 1.13 -1.802 0.18000001
-6.1430001 1.115 -1.811 0.17
-6.1539998 1.097 -1.813 0.23
-6.1440001 1.076 -1.809 0.039999999
-6.145 1.066 -1.809 0.07
-6.1370001 1.045 -1.8049999 0.079999998
-6.1240001 1.023 -1.8 0.090000004
-6.119 1.002 -1.798 0.039999999
-6.1620002 0.98900002 -1.8099999 0.14
-6.1370001 0.96600002 -1.801 0.050000001
-6.1399999 0.94599998 -1.801 0
-6.145 0.93699998 -1.802 0
-6.1420002 0.917 -1.801 0.12
-6.1430001 0.89700001 -1.8 0.2
-6.1799998 0.88300002 -1.811 0
-6.1110001 0.85399997 -1.788 0
-6.1399999 0.838 -1.796 0.12
-6.158 0.82099998 -1.801 0.18000001
-6.1669998 0.81199998 -1.804 0.1
-6.2020001 0.79699999 -1.814 0.17
-6.177 0.77399999 -1.8049999 0.23
-6.1869998 0.755 -1.808 0.19
-6.1630001 0.73299998 -1.799 0.20999999
-6.1919999 0.71700001 -1.808 0.20999999
-6.1830001 0.69599998 -1.804 0.12
-6.197 0.68800002 -1.808 0.20999999
-6.198 0.66799998 -1.808 0.16
-6.1900001 0.64700001 -1.8049999 0.28999999
-6.2020001 0.62900001 -1.808 0.19
-6.1939998 0.60900003 -1.8049999 0.14
-6.1960001 0.58899999 -1.8049999 0.20999999
-6.2020001 0.56999999 -1.806 0.17
-6.2059999 0.56099999 -1.807 0.25999999
-6.2119999 0.54100001 -1.808 0.25
-6.21 0.52200001 -1.807 0.27000001
-6.2189999 0.50300002 -1.809 0.17
-6.2069998 0.48199999 -1.8049999 0.25999999
-6.224 0.46399999 -1.8099999 0.22
-6.223 0.44400001 -1.809 0.17
-6.211 0.433 -1.8049999 0.15000001
-6.2249999 0.41499999 -1.809 0.18000001
-6.2189999 0.39500001 -1.807 0.19
-6.2340002 0.37599999 -1.811 0.20999999
-6.2399998 0.35699999 -1.813 0.25999999
-6.217 0.336 -1.8049999 0.20999999
-6.223 0.31600001 -1.807 0.1
-6.2509999 0.308 -1.8150001 0.18000001
-6.2399998 0.28799999 -1.812 0.20999999
-6.2509999 0.26899999 -1.8150001 0.18000001
-6.2379999 0.248 -1.811 0.13
-6.2579999 0.229 -1.817 0.17
-6.2340002 0.20900001 -1.809 0.050000001
-6.2379999 0.19 -1.8099999 0.17
-6.2459998 0.17 -1.812 0.2
-6.2519999 0.16 -1.814 0.25
-6.2360001 0.14 -1.809 0.11
-6.2340002 0.121 -1.808 0.079999998
-6.2519999 0.101 -1.814 0.14
-6.2459998 0.082000002 -1.812 0.25
-6.2690001 0.061999999 -1.819 0.19
-6.2519999 0.043000001 -1.814 0.13
-6.2350001 0.033 -1.808 0
-6.2280002 0.013 -1.806 0
-6.2199998 -0.0060000001 -1.804 0.029999999
-6.2280002 -0.026000001 -1.806 0.039999999
-6.2639999 -0.046 -1.817 0.17
-6.2620001 -0.066 -1.817 0.20999999
-6.2519999 -0.085000001 -1.814 0.13
-6.2800002 -0.094999999 -1.822 0.17
-6.244 -0.114 -1.811 0.050000001
-6.2399998 -0.134 -1.8099999 0
-6.23 -0.153 -1.807 0
-6.2459998 -0.17299999 -1.812 0.12
-6.2379999 -0.193 -1.8099999 0.14
-6.257 -0.213 -1.816 0.28999999
-6.277 -0.22400001 -1.822 0.18000001
-6.2589998 -0.243 -1.817 0.23
-6.2779999 -0.26300001 -1.823 0.20999999
-6.2540002 -0.28200001 -1.816 0.12
-6.2470002 -0.301 -1.814 0
-6.2519999 -0.32100001 -1.816 0.059999999
-6.2529998 -0.34099999 -1.817 0.14
-6.2579999 -0.35100001 -1.818 0.090000004
-6.2779999 -0.37200001 -1.825 0.20999999
-6.2649999 -0.391 -1.821 0.20999999
-6.237 -0.40900001 -1.813 0.059999999
-6.244 -0.42899999 -1.8150001 0.17
-6.2270002 -0.447 -1.811 0.050000001
-6.2410002 -0.46799999 -1.8150001 0.17
-6.2399998 -0.47799999 -1.8150001 0.050000001
-6.2189999 -0.49599999 -1.809 0.039999999
-6.2179999 -0.51599997 -1.809 0.029999999
-6.2280002 -0.53600001 -1.813 0.029999999
-6.2490001 -0.55800003 -1.8200001 0.13
-6.2470002 -0.57700002 -1.8200001 0.11
-6.2490001 -0.597 -1.821 0.090000004
-6.2350001 -0.60600001 -1.817 0.090000004
-6.2649999 -0.62900001 -1.827 0.16
-6.25 -0.64700001 -1.823 0.23
-6.2529998 -0.667 -1.825 0.19
-6.2399998 -0.68599999 -1.821 0.13
-6.2550001 -0.70700002 -1.827 0.18000001
-6.2259998 -0.72399998 -1.818 0.050000001
-6.2360001 -0.73500001 -1.822 0.17
-6.2379999 -0.755 -1.823 0.20999999
-6.2470002 -0.77600002 -1.827 0.16
-6.2249999 -0.79299998 -1.821 0.059999999
-6.2340002 -0.81400001 -1.824 0.16
-6.158 -0.824 -1.801 0.050000001
-6.1609998 -0.84399998 -1.803 0.17
-6.1669998 -0.86400002 -1.806 0.12
-6.1700001 -0.88499999 -1.808 0.07
-6.1599998 -0.903 -1.8049999 0.16
-6.1550002 -0.92199999 -1.8049999 0.19
-6.158 -0.93199998 -1.806 0.16
-6.1620002 -0.95300001 -1.808 0.1
-6.1529999 -0.97100002 -1.807 0.090000004
-6.1469998 -0.99000001 -1.8049999 0.039999999
-6.1589999 -1.012 -1.8099999 0.07
-6.1760001 -1.035 -1.817 0.18000001
-6.1500001 -1.05 -1.809 0.050000001
-6.1389999 -1.058 -1.807 0.07
-6.1409998 -1.0779999 -1.808 0.039999999
-6.1659999 -1.103 -1.817 0.15000001
-6.1830001 -1.126 -1.824 0.18000001
-6.1630001 -1.142 -1.818 0.14
-6.1739998 -1.165 -1.823 0.17
-6.1479998 -1.1799999 -1.816 0.22
-6.1479998 -1.1900001 -1.817 0.16
-6.1370001 -1.207 -1.814 0.23
-6.1389999 -1.228 -1.816 0.25
-6.1220002 -1.244 -1.812 0.11
-6.138 -1.268 -1.818 0.18000001
-6.119 -1.284 -1.814 0.22
-6.1389999 -1.308 -1.821 0.2
-6.1079998 -1.312 -1.812 0.30000001
-6.1020002 -1.33 -1.811 0.22
-6.0879998 -1.347 -1.808 0.25
-6.0949998 -1.369 -1.812 0.22
-6.0910001 -1.388 -1.812 0.25
-6.0640001 -1.402 -1.8049999 0.22
-6.0739999 -1.425 -1.809 0.15000001
-6.0869999 -1.438 -1.814 0.18000001
-6.0450001 -1.448 -1.802 0.050000001
-6.0560002 -1.47 -1.807 0.17
-6.0430002 -1.488 -1.8049999 0.11
-6.052 -1.51 -1.809 0.20999999
-6.0510001 -1.53 -1.8099999 0.27000001
-6.0440001 -1.548 -1.809 0.27000001
-6.0599999 -1.563 -1.8150001 0.25999999
-6.0419998 -1.5779999 -1.811 0.28
-6.0149999 -1.591 -1.804 0.25
-5.9819999 -1.603 -1.795 0.38
-5.9510002 -1.614 -1.7869999 0.19
-5.8990002 -1.62 -1.772 0.27000001
-5.8709998 -1.632 -1.765 0.23
-5.8499999 -1.636 -1.7589999 0.19
-5.8249998 -1.649 -1.752 0.28
-5.8309999 -1.67 -1.756 0.23999999
-5.8179998 -1.686 -1.753 0.25999999
-5.8179998 -1.706 -1.755 0.19
-5.7979999 -1.72 -1.75 0.27000001
-5.7950001 -1.739 -1.751 0.25
-5.7839999 -1.755 -1.749 0.27000001
-5.7870002 -1.766 -1.751 0.25
-5.7610002 -1.778 -1.744 0.17
-5.7459998 -1.793 -1.742 0.25999999
-5.75 -1.814 -1.744 0.1
-5.7150002 -1.823 -1.735 0
-5.7020001 -1.8380001 -1.733 0
-5.7020001 -1.848 -1.734 0
-5.6859999 -1.863 -1.73 0
-5.6739998 -1.8789999 -1.729 0
-5.6669998 -1.896 -1.728 0
-5.6659999 -1.916 -1.73 0
-5.4369998 -2.46 -1.726 0.07
-5.4359999 -2.4809999 -1.728 0.16
-5.4229999 -2.4949999 -1.726 0.23
-5.415 -2.5120001 -1.726 0.19
-5.4180002 -2.5239999 -1.729 0.23999999
-5.4099998 -2.5409999 -1.729 0.20999999
-5.4039998 -2.559 -1.729 0.16
-5.3909998 -2.573 -1.727 0.27000001
-5.3899999 -2.5940001 -1.73 0.22
-5.3730001 -2.6059999 -1.727 0.18000001
-5.3800001 -2.631 -1.732 0.27000001
-5.3759999 -2.6389999 -1.732 0.19
-5.3559999 -2.6500001 -1.728 0.25
-5.3569999 -2.6719999 -1.7309999 0.18000001
-5.3390002 -2.684 -1.728 0.25
-5.335 -2.7030001 -1.73 0.19
-5.3200002 -2.7160001 -1.727 0.25
-5.3200002 -2.7379999 -1.73 0.23
-5.3060002 -2.7409999 -1.727 0.16
-5.2940001 -2.756 -1.726 0.31
-5.2950001 -2.7780001 -1.729 0.23
-5.276 -2.789 -1.726 0.16
-5.2810001 -2.813 -1.73 0.28999999
-5.2719998 -2.829 -1.73 0.22
-5.2550001 -2.8410001 -1.727 0.18000001
-5.2600002 -2.855 -1.7309999 0.27000001
-5.256 -2.8740001 -1.733 0.22
-5.2459998 -2.8900001 -1.732 0.18000001
-5.2309999 -2.9030001 -1.73 0.25999999
-5.237 -2.928 -1.7359999 0.25
-5.2350001 -2.948 -1.738 0.16
-5.217 -2.96 -1.735 0.28999999
-5.2090001 -2.9660001 -1.734 0.25
-5.2129998 -2.99 -1.739 0.23
-5.2150002 -3.0139999 -1.743 0.27000001
-5.1880002 -3.0190001 -1.7359999 0.30000001
-5.1830001 -3.0380001 -1.738 0.27000001
-5.1820002 -3.0599999 -1.7410001 0.28999999
-5.1570001 -3.0669999 -1.7359999 0.27000001
-5.151 -3.0739999 -1.735 0.27000001
-5.1440001 -3.092 -1.7359999 0.28999999
-5.1399999 -3.1110001 -1.738 0.27000001
-5.1279998 -3.1270001 -1.737 0.30000001
-5.1209998 -3.145 -1.739 0.28999999
-5.1100001 -3.1600001 -1.738 0.25
-5.1030002 -3.178 -1.739 0.27000001
-5.1059999 -3.191 -1.742 0.25
-5.0799999 -3.197 -1.7359999 0.18000001
-5.072 -3.214 -1.737 0.30000001
-5.0700002 -3.2349999 -1.74 0.25
-5.059 -3.2509999 -1.74 0.27000001
-5.0510001 -3.2679999 -1.74 0.25999999
-5.0440001 -3.286 -1.742 0.28
-5.0479999 -3.3 -1.745 0.25
-5.0250001 -3.3069999 -1.74 0.20999999
-5.0029998 -3.3150001 -1.7359999 0.27000001
-4.9899998 -3.329 -1.735 0.38999999
-4.9640002 -3.3340001 -1.729 0.25999999
-4.9580002 -3.3529999 -1.7309999 0.31999999
-4.9549999 -3.3740001 -1.734 0.38
-4.948 -3.391 -1.735 0.33000001
-4.9520001 -3.4059999 -1.739 0.38999999
-4.9169998 -3.405 -1.73 0.31
-4.921 -3.4300001 -1.735 0.30000001
-4.915 -3.4489999 -1.737 0.38999999
-4.9130001 -3.471 -1.74 0.33000001
-4.9190001 -3.4990001 -1.747 0.38
-4.9159999 -3.52 -1.75 0.49000001
-4.8920002 -3.5139999 -1.743 0.25999999
-4.869 -3.52 -1.738 0.41999999
-4.8559999 -3.5350001 -1.737 0.27000001
-4.8449998 -3.55 -1.737 0.18000001
-4.8319998 -3.5639999 -1.737 0.27000001
-4.8210001 -3.579 -1.737 0.25
-4.8200002 -3.602 -1.7410001 0.25999999
-4.8189998 -3.6129999 -1.743 0.23999999
-4.783 -3.6099999 -1.733 0.18000001
-4.777 -3.628 -1.735 0.28
-4.7709999 -3.648 -1.737 0.25
-4.7519999 -3.6570001 -1.734 0.25999999
-4.7420001 -3.6730001 -1.735 0.28
-4.7319999 -3.677 -1.733 0.27000001
-4.711 -3.6849999 -1.73 0.16
-4.698 -3.698 -1.729 0.30000001
-4.6900001 -3.7160001 -1.73 0.23999999
-4.6750002 -3.7279999 -1.729 0.25
-4.6570001 -3.7379999 -1.727 0.25999999
-4.6469998 -3.7539999 -1.727 0.27000001
-4.6339998 -3.7550001 -1.724 0.27000001
-4.6230001 -3.7709999 -1.725 0.27000001
-4.6059999 -3.78 -1.723 0.27000001
-4.5879998 -3.79 -1.72 0.27000001
-4.586 -3.813 -1.724 0.25999999
-4.5700002 -3.823 -1.723 0.25
-4.5619998 -3.8410001 -1.724 0.31999999
-4.54 -3.8469999 -1.72 0.30000001
-4.5430002 -3.862 -1.724 0.25
-4.5120001 -3.8599999 -1.716 0.25999999
-4.5139999 -3.8859999 -1.722 0.31
-4.5040002 -3.9030001 -1.723 0.33000001
-4.4889998 -3.915 -1.722 0.31
-4.473 -3.925 -1.72 0.30000001
-4.4640002 -3.9289999 -1.719 0.27000001
-4.447 -3.9400001 -1.717 0.28
-4.4369998 -3.9560001 -1.7180001 0.27000001
-4.4169998 -3.9619999 -1.715 0.28
-4.4109998 -3.983 -1.7180001 0.25999999
-4.3969998 -3.9949999 -1.717 0.27000001
-4.3899999 -4.0139999 -1.72 0.25
-4.368 -4.0190001 -1.716 0.28999999
-4.3610001 -4.026 -1.716 0.28999999
-4.3530002 -4.0430002 -1.717 0.25999999
-4.3330002 -4.0500002 -1.714 0.28999999
-4.322 -4.0650001 -1.715 0.28999999
-4.3080001 -4.0780001 -1.714 0.28
-4.2909999 -4.0869999 -1.7130001 0.27000001
-4.2750001 -4.098 -1.711 0.28
-4.2729998 -4.1090002 -1.7130001 0.28999999
-4.256 -4.118 -1.711 0.28999999
-4.243 -4.131 -1.711 0.27000001
-4.2379999 -4.1529999 -1.715 0.27000001
-4.2199998 -4.1609998 -1.7130001 0.30000001
-4.2080002 -4.1750002 -1.7130001 0.28999999
-4.1950002 -4.1880002 -1.7130001 0.27000001
-4.1880002 -4.1950002 -1.7130001 0.25999999
-4.1789999 -4.2119999 -1.715 0.25
-4.1669998 -4.2270002 -1.716 0.28
-4.152 -4.2379999 -1.715 0.28
-4.131 -4.243 -1.711 0.28
-4.118 -4.256 -1.711 0.28
-4.1069999 -4.2579999 -1.71 0.27000001
-4.0949998 -4.2729998 -1.71 0.28
-4.085 -4.29 -1.712 0.27000001
-4.072 -4.303 -1.712 0.25999999
-4.0570002 -4.3140001 -1.711 0.28
-4.0310001 -4.3130002 -1.705 0.25999999
-4.0300002 -4.3390002 -1.711 0.27000001
-4.0120001 -4.3330002 -1.706 0.25999999
-3.994 -4.3410001 -1.704 0.27000001
-3.993 -4.368 -1.71 0.25999999
-3.9690001 -4.369 -1.705 0.27000001
-3.9519999 -4.3769999 -1.704 0.17
-3.9430001 -4.395 -1.706 0.28999999
-3.924 -4.402 -1.704 0.25
-3.9200001 -4.4109998 -1.705 0.28999999
-3.905 -4.4219999 -1.704 0.25999999
-3.8829999 -4.4260001 -1.701 0.25999999
-3.865 -4.4330001 -1.699 0.16
-3.858 -4.4530001 -1.702 0.28999999
-3.839 -4.4590001 -1.7 0.25
-3.819 -4.4640002 -1.697 0.19
-3.809 -4.4819999 -1.699 0.27000001
-3.793 -4.4759998 -1.694 0.23999999
-3.7809999 -4.4910002 -1.6950001 0.25999999
-3.77 -4.507 -1.697 0.16
-3.7449999 -4.506 -1.692 0.28999999
-3.73 -4.5159998 -1.691 0.23999999
-3.7279999 -4.5419998 -1.697 0.18000001
-3.6919999 -4.527 -1.687 0.28
-3.6900001 -4.539 -1.689 0.23999999
-3.6760001 -4.552 -1.689 0.19
-3.6500001 -4.5489998 -1.684 0.27000001
-3.6429999 -4.5689998 -1.687 0.23999999
-3.625 -4.5760002 -1.6849999 0.15000001
-3.6059999 -4.5809999 -1.683 0.28999999
-3.5940001 -4.5960002 -1.684 0.25
-3.586 -4.5999999 -1.684 0.16
-3.5650001 -4.6030002 -1.681 0.28999999
-3.5510001 -4.6149998 -1.681 0.25
-3.543 -4.6350002 -1.684 0.16
-3.5179999 -4.632 -1.679 0.28999999
-3.5120001 -4.6539998 -1.683 0.23999999
-3.4949999 -4.6620002 -1.682 0.15000001
-3.4849999 -4.664 -1.681 0.28
-3.4690001 -4.6739998 -1.6799999 0.23
-3.448 -4.6750002 -1.676 0.18000001
-3.428 -4.678 -1.674 0.27000001
-3.4159999 -4.6939998 -1.675 0.23999999
-3.4100001 -4.717 -1.6799999 0.18000001
-3.3859999 -4.7140002 -1.675 0.27000001
-3.3770001 -4.717 -1.674 0.23
-3.3670001 -4.7340002 -1.676 0.18000001
-3.3380001 -4.724 -1.669 0.27000001
-3.3310001 -4.7470002 -1.674 0.23
-3.316 -4.7579999 -1.674 0.18000001
-3.289 -4.7490001 -1.666 0.27000001
-3.2880001 -4.7639999 -1.67 0.23999999
-3.276 -4.7789998 -1.6720001 0.16
-3.2539999 -4.7800002 -1.668 0.28999999
-3.2409999 -4.7930002 -1.669 0.25
-3.2249999 -4.802 -1.669 0.18000001
-3.2049999 -4.8039999 -1.666 0.27000001
-3.1930001 -4.8189998 -1.668 0.23999999
-3.1900001 -4.8299999 -1.67 0.18000001
-3.1689999 -4.8319998 -1.6670001 0.25999999
-3.1489999 -4.8340001 -1.664 0.16
-3.1340001 -4.8439999 -1.664 0.27000001
-3.1229999 -4.8600001 -1.666 0.25
-3.1059999 -4.868 -1.666 0.17
-3.086 -4.8699999 -1.663 0.25999999
-3.0680001 -4.8759999 -1.6619999 0.23
-3.059 -4.8779998 -1.661 0.19
-3.049 -4.8969998 -1.664 0.25999999
-3.036 -4.9099998 -1.665 0.23
-3.013 -4.9070001 -1.661 0.15000001
-2.9990001 -4.9190001 -1.6619999 0.28999999
-2.9820001 -4.9250002 -1.661 0.23999999
-2.96 -4.9250002 -1.6569999 0.17
-2.9530001 -4.9299998 -1.6569999 0.27000001
-2.9419999 -4.947 -1.66 0.23999999
-2.927 -4.9580002 -1.661 0.18000001
-2.908 -4.96 -1.658 0.25999999
-2.8970001 -4.9780002 -1.661 0.23
-2.875 -4.9749999 -1.6569999 0.18000001
-2.862 -4.9889998 -1.659 0.27000001
-2.8529999 -4.9920001 -1.658 0.22
-2.8329999 -4.993 -1.655 0.17
-2.8210001 -5.0079999 -1.658 0.27000001
